# .PCD v0.7 - Point Cloud Data file format
VERSION 0.7
FIELDS x y z
SIZE 4 4 4
TYPE F F F
COUNT 1 1 1
WIDTH 1331
HEIGHT 1
VIEWPOINT 0 0 0 1 0 0 0
POINTS 1331
DATA ascii
-0.078847744 -0.021568917 0.189
-0.090915158 -0.018383933 0.18500014
-0.087497294 -0.017488396 0.18565182
-0.082465328 -0.017475102 0.18713763
-0.07765013 -0.017419182 0.18862019
-0.074312113 -0.016451254 0.1890001
-0.086983904 -0.012821537 0.18508692
-0.082398742 -0.012495829 0.18617547
-0.077561714 -0.012593507 0.18776181
-0.073351108 -0.012108302 0.18883109
-0.069969222 -0.010038465 0.18900001
-0.08543089 -0.0085996417 0.18499996
-0.082359746 -0.0075651286 0.18529403
-0.077535853 -0.0076247244 0.1866556
-0.072557725 -0.0074907653 0.18794876
-0.068652518 -0.00657778 0.18889901
-0.081394903 -0.0029303969 0.18503194
-0.077368878 -0.0024865409 0.18592064
-0.07245066 -0.0024191337 0.18721287
-0.067643106 -0.0023516102 0.18859743
-0.064282894 -0.0013891623 0.1890001
-0.080376372 0.00051052746 0.18500002
-0.076814406 0.0022966343 0.18520017
-0.072455913 0.0026538367 0.18634084
-0.067605451 0.0026060324 0.18781871
-0.062978745 0.002886584 0.18877688
-0.059759066 0.0045785271 0.18900001
-0.076022938 0.0061708894 0.18500003
-0.072391145 0.0074287006 0.18550928
-0.06751401 0.0075652651 0.18689115
-0.062586077 0.0076338788 0.18810084
-0.05863991 0.007859299 0.1889575
-0.071135044 0.011945848 0.18502417
-0.067456044 0.012444469 0.18588309
-0.062546141 0.012580219 0.18722035
-0.057729274 0.012470676 0.18865146
-0.054528974 0.014110893 0.18900006
-0.07036227 0.015544495 0.18499997
-0.067045487 0.017182669 0.18520944
-0.062598512 0.017471109 0.18651997
-0.057577271 0.017486885 0.18792719
-0.053415235 0.018020544 0.18890876
-0.065926135 0.021127036 0.185
-0.062453683 0.022369541 0.18554525
-0.057619076 0.022522019 0.18686175
-0.052580398 0.022508955 0.18841863
-0.048953447 0.023026984 0.18898997
-0.061179835 0.026668198 0.18502215
-0.057451695 0.027467715 0.18596137
-0.052342143 0.027521379 0.18714151
-0.047967698 0.027676869 0.18868656
-0.044721667 0.029357808 0.18900001
-0.060380965 0.030184276 0.185
-0.057239518 0.032253999 0.18509479
-0.05240671 0.032492537 0.18622857
-0.047458194 0.032478817 0.18801419
-0.043582536 0.032933153 0.18893723
-0.055678349 0.036731508 0.18500009
-0.052345924 0.037442602 0.18559833
-0.047426097 0.037491925 0.18704797
-0.04255956 0.037550449 0.18830402
-0.039244514 0.038326856 0.1890001
-0.055027001 0.040148526 0.185
-0.051745865 0.041612606 0.18512572
-0.047449023 0.042494714 0.18588592
-0.042510405 0.042620528 0.18746759
-0.037757289 0.042661607 0.18864714
-0.03430498 0.04390154 0.18900008
-0.050131947 0.045207296 0.185
-0.046862539 0.047198765 0.18526924
-0.0425204 0.047607869 0.18636186
-0.037527289 0.047544587 0.18786056
-0.033150449 0.04781694 0.18883637
-0.029962098 0.049786795 0.18900001
-0.045946684 0.050732084 0.18499996
-0.042353023 0.052442189 0.18552966
-0.03755514 0.052500002 0.18687399
-0.032566436 0.05251766 0.18823797
-0.028620105 0.05335867 0.18899989
-0.041272972 0.057157751 0.18499993
-0.037395209 0.057457898 0.18573681
-0.03250799 0.057457514 0.18740003
-0.027683917 0.057510208 0.18873291
-0.023945402 0.058914967 0.1890001
-0.040533055 0.060191993 0.185
-0.036780067 0.062192187 0.18514574
-0.032521643 0.062492076 0.18638864
-0.027585104 0.062466811 0.18784575
-0.02297724 0.062729731 0.18888435
-0.019781711 0.064508192 0.18900001
-0.035862871 0.065742828 0.18499996
-0.032045897 0.067177944 0.18532817
-0.027442308 0.067498341 0.18660168
-0.022527993 0.067458436 0.18822598
-0.019084539 0.067773759 0.18899995
-0.03131659 0.070501171 0.18499996
-0.02728896 0.070710965 0.18612985
-0.022353509 0.070906036 0.18755659
-0.018249925 0.071235865 0.18877417
-0.097709157 -0.077299744 0.19359386
-0.09436819 -0.076142751 0.1940001
-0.097401209 -0.072468616 0.19269219
-0.093275532 -0.072201051 0.19383733
-0.097168177 -0.067500174 0.19210279
-0.092468888 -0.067497171 0.19346724
-0.089017667 -0.066446535 0.19400015
-0.09709803 -0.06256941 0.19130564
-0.092596963 -0.062639944 0.1926809
-0.087852918 -0.062287789 0.19371586
-0.084636353 -0.060899165 0.19400001
-0.096866295 -0.057542633 0.19034488
-0.092483826 -0.057408735 0.19146688
-0.087593563 -0.057423633 0.1929597
-0.083602406 -0.057168193 0.19390164
-0.096242324 -0.053350233 0.18999985
-0.092450708 -0.052471943 0.19063985
-0.087533981 -0.052404903 0.19223177
-0.082580693 -0.052525301 0.19360271
-0.079245046 -0.051342193 0.19400012
-0.091692694 -0.047857933 0.19008455
-0.087465838 -0.047506001 0.19113562
-0.082424961 -0.04753042 0.19275978
-0.078169875 -0.047042996 0.19386491
-0.090558127 -0.043988939 0.19000004
-0.087413661 -0.042471893 0.19032723
-0.082564577 -0.042580318 0.19170505
-0.077510059 -0.042424936 0.19324566
-0.074016683 -0.041826624 0.19400017
-0.086635865 -0.038243022 0.19001581
-0.082418591 -0.037571982 0.19062145
-0.077552199 -0.037537385 0.19241339
-0.072795756 -0.037231755 0.19363496
-0.069414072 -0.035783503 0.19400005
-0.085107267 -0.034966979 0.19000001
-0.082060277 -0.03277988 0.19014397
-0.077531926 -0.032427233 0.19136833
-0.072512582 -0.032519683 0.19277081
-0.068797126 -0.032095306 0.19389763
-0.081167109 -0.028307308 0.18999992
-0.077435203 -0.027533432 0.19057383
-0.072543815 -0.027455999 0.19211318
-0.067472644 -0.027508013 0.19347282
-0.064140119 -0.026405668 0.19400014
-0.080079921 -0.024733428 0.19000001
-0.076905541 -0.022947527 0.19002604
-0.072420679 -0.022452811 0.19109292
-0.067423545 -0.022523776 0.19261774
-0.062785745 -0.022223631 0.19379129
-0.05962893 -0.02115874 0.19400002
-0.075534359 -0.019474959 0.19000004
-0.07206437 -0.017709412 0.19047743
-0.067384809 -0.017487718 0.19173165
-0.062442753 -0.017517416 0.19293015
-0.059097022 -0.017076656 0.19394016
-0.071119942 -0.013002093 0.19003478
-0.067398123 -0.012531886 0.19086012
-0.062524259 -0.012482822 0.19217235
-0.05776969 -0.012395797 0.19356871
-0.05457595 -0.010866671 0.19400001
-0.066716336 -0.0080918828 0.1901762
-0.062565722 -0.0073986123 0.19116771
-0.05757165 -0.0075535406 0.19277027
-0.053143919 -0.0070355507 0.19375595
-0.049522966 -0.0051599122 0.19400001
-0.065390632 -0.004502485 0.19000001
-0.062257838 -0.0026748329 0.19038688
-0.057463221 -0.002369768 0.19167204
-0.052420229 -0.0024135637 0.19319463
-0.048727889 -0.0018078558 0.19394079
-0.060919408 0.0015589267 0.18999998
-0.057513528 0.002492466 0.19082794
-0.052464414 0.0025341837 0.19244353
-0.047705714 0.0026749938 0.19353949
-0.044175901 0.0044674524 0.19400001
-0.056450907 0.0069943694 0.19023259
-0.052551083 0.0074596093 0.19131255
-0.047516484 0.0074592168 0.19275701
-0.04325629 0.0078670271 0.19384725
-0.055434119 0.011064322 0.19000004
-0.052399419 0.012290721 0.1902734
-0.047500912 0.012567654 0.19158809
-0.042474575 0.012524814 0.19314982
-0.038628895 0.01323941 0.19400018
-0.051541056 0.01669481 0.19000001
-0.047449667 0.017481603 0.19061363
-0.042460293 0.017472653 0.19229655
-0.037955586 0.01768643 0.19365144
-0.034925461 0.019917674 0.19400001
-0.046775099 0.022152517 0.1902044
-0.042528521 0.022564268 0.19138345
-0.037598774 0.022523304 0.19292688
-0.033411559 0.023120195 0.1940002
-0.045942944 0.026535725 0.18999992
-0.042490158 0.027527358 0.19056836
-0.037454464 0.027443362 0.19183454
-0.032531697 0.027431766 0.19324656
-0.028515324 0.0279902 0.19393404
-0.041424356 0.031941772 0.1901419
-0.037493579 0.032520622 0.19082943
-0.032511555 0.032543734 0.19228619
-0.027759351 0.032556884 0.19348004
-0.024330238 0.033718392 0.19400012
-0.040332429 0.035408366 0.19000001
-0.036996666 0.037284568 0.19024426
-0.032472141 0.037618127 0.19126463
-0.027466616 0.037485212 0.19277263
-0.023371983 0.03781132 0.19382416
-0.035815671 0.040997464 0.19000004
-0.03226953 0.042251442 0.19030727
-0.027557284 0.04254343 0.19179697
-0.022475114 0.042517062 0.19320926
-0.018750859 0.043653451 0.19395016
-0.031101238 0.0466315 0.18999986
-0.027417982 0.047471493 0.19077963
-0.022447135 0.047556262 0.19236147
-0.017612241 0.047719039 0.19358726
-0.014412755 0.04911457 0.19400001
-0.026927654 0.051885955 0.19010299
-0.022560962 0.052508935 0.1913325
-0.017531356 0.052460231 0.19275688
-0.013162625 0.053211465 0.19370478
-0.0099011622 0.054479733 0.19400001
-0.025390949 0.055883758 0.19000004
-0.022189209 0.057179704 0.1904784
-0.017574914 0.057416122 0.19166842
-0.012557128 0.057534128 0.1928616
-0.0088325366 0.058003165 0.19389831
-0.020826111 0.061507732 0.18999991
-0.017449316 0.062451247 0.19076948
-0.012496222 0.062496752 0.19209306
-0.0075488901 0.062595531 0.19351402
-0.004516894 0.063740559 0.19400004
-0.016633768 0.067351997 0.19023217
-0.012450259 0.067623422 0.19136962
-0.0075005004 0.067549579 0.19251172
-0.0031986267 0.067848489 0.19370276
-0.015872438 0.071231849 0.18999997
-0.012355126 0.071564056 0.19059621
-0.0073270858 0.071777299 0.19184528
-0.0024660216 0.071958676 0.19323306
0.0012748414 0.072983891 0.19397664
-0.096053846 -0.080160744 0.19500002
-0.091823302 -0.080423646 0.19622861
-0.087284774 -0.080567978 0.19726749
-0.082720272 -0.080916986 0.19878586
-0.079924062 -0.080156095 0.19900002
-0.095826909 -0.079286993 0.19500004
-0.092183501 -0.077733859 0.19546458
-0.087487906 -0.07744237 0.19693328
-0.08262907 -0.077451356 0.19838156
-0.078833483 -0.076720089 0.19900012
-0.091133825 -0.073097058 0.19502117
-0.08761891 -0.072439365 0.19578017
-0.082558364 -0.072502628 0.1972816
-0.077696852 -0.072469257 0.19872296
-0.074494027 -0.071004316 0.19900005
-0.090410478 -0.069657885 0.19500001
-0.087084293 -0.067856692 0.19504122
-0.082494862 -0.067571335 0.19623186
-0.077484958 -0.067573346 0.19779843
-0.073660344 -0.067306951 0.19898437
-0.085785471 -0.064079039 0.19500007
-0.08233127 -0.062661245 0.19553867
-0.077497043 -0.062550016 0.19697165
-0.07261797 -0.062414914 0.19842952
-0.068749852 -0.060825672 0.19900002
-0.081325635 -0.058027696 0.19508456
-0.077517033 -0.057466026 0.19608048
-0.072396912 -0.057461876 0.19739749
-0.06792336 -0.057245258 0.19886023
-0.080395736 -0.05437937 0.19500002
-0.077159837 -0.052695688 0.19528605
-0.072518811 -0.0525125 0.19660045
-0.067554325 -0.052454539 0.19802977
-0.06354475 -0.051786955 0.19889469
-0.076105781 -0.048114724 0.19499989
-0.072514489 -0.047549929 0.19581819
-0.067549825 -0.047497898 0.19726323
-0.062575132 -0.047455769 0.19856982
-0.059520297 -0.045949154 0.19900006
-0.071978971 -0.042793989 0.19504815
-0.067576095 -0.04245675 0.19627579
-0.062481795 -0.042517751 0.19774942
-0.058559302 -0.042203464 0.19890635
-0.070939653 -0.039011095 0.19500005
-0.067312524 -0.037676714 0.1955324
-0.062549286 -0.037488781 0.19706246
-0.057637021 -0.037498739 0.19845301
-0.054068487 -0.036562521 0.19893952
-0.066492468 -0.032829762 0.19521265
-0.062481355 -0.032513477 0.1960787
-0.057571486 -0.032414254 0.19719079
-0.052883383 -0.032322723 0.19853982
-0.0494758 -0.030715706 0.19900005
-0.065176569 -0.029504661 0.19500001
-0.062124435 -0.02776053 0.19517738
-0.057533268 -0.027407801 0.19646901
-0.052495964 -0.027494874 0.19780381
-0.048298098 -0.027186848 0.19884089
-0.061039511 -0.024100155 0.19500007
-0.057276357 -0.022534933 0.1955996
-0.052365717 -0.022570273 0.19714259
-0.047452398 -0.022403097 0.19836925
-0.043839298 -0.021308145 0.19900009
-0.05667818 -0.017724989 0.19512841
-0.052471343 -0.017568253 0.19611584
-0.047493543 -0.017413136 0.19735223
-0.04275972 -0.017238943 0.19862524
-0.039572198 -0.015947778 0.19900003
-0.055567238 -0.013880687 0.19500005
-0.052360866 -0.012597094 0.19512579
-0.047607701 -0.012392216 0.19624163
-0.042518131 -0.012493303 0.19795696
-0.03816073 -0.012014023 0.19898595
-0.051291391 -0.0083352979 0.1949999
-0.047418095 -0.0074796951 0.19533168
-0.042484585 -0.0075302846 0.19708303
-0.037533775 -0.0075831795 0.19847965
-0.034499824 -0.0068570655 0.19899999
-0.046559397 -0.0028370977 0.19516641
-0.042377964 -0.002420011 0.19629715
-0.037450045 -0.0025164292 0.19762127
-0.033004176 -0.0021870208 0.19886152
-0.029901927 -1.6198826e-05 0.19900002
-0.045532286 0.0014922293 0.19500005
-0.042316001 0.0024118978 0.19533738
-0.037517179 0.0026323376 0.19670673
-0.032551061 0.0026084471 0.19811709
-0.02832876 0.0034123105 0.1988907
-0.041087456 0.0069079325 0.1949999
-0.037622612 0.0074132746 0.19581999
-0.03250144 0.0075287232 0.19714808
-0.027562657 0.0075777676 0.19854087
-0.024193173 0.0087603582 0.19900005
-0.040265135 0.010002235 0.19500001
-0.036807012 0.011944514 0.19509792
-0.032547925 0.01249015 0.19618227
-0.027585845 0.012462646 0.19769728
-0.023095807 0.012726259 0.19891663
-0.03567557 0.016817557 0.19499998
-0.032458726 0.01748566 0.1955829
-0.027428325 0.01744617 0.19675563
-0.022452781 0.017461523 0.198285
-0.018583627 0.01841468 0.19900016
-0.031763908 0.021661606 0.19499983
-0.027539214 0.022475014 0.19562697
-0.022518022 0.022510674 0.19714786
-0.017532069 0.022531293 0.19849248
-0.014128969 0.023571918 0.199
-0.026398685 0.027039669 0.19512376
-0.022461899 0.027513389 0.19618355
-0.017404271 0.027451206 0.19747548
-0.01281793 0.027796149 0.19876422
-0.0095639797 0.029863119 0.19900002
-0.025366651 0.030749412 0.19499999
-0.022178814 0.032291777 0.19538808
-0.017498963 0.032403518 0.19672687
-0.012574202 0.032552969 0.19789878
-0.0085867178 0.033139333 0.19892855
-0.021121513 0.036893457 0.19503397
-0.017599294 0.037521325 0.19602309
-0.012523625 0.037528109 0.19721024
-0.0075193602 0.037495386 0.19844876
-0.0044113239 0.03870159 0.19899999
-0.020432737 0.040218141 0.19500001
-0.017024249 0.042048432 0.1951288
-0.012516184 0.042659748 0.19610134
-0.0074882163 0.04242871 0.19767384
-0.0034163485 0.042851686 0.19884337
-0.015645178 0.045948103 0.19500002
-0.012248632 0.047366772 0.19533296
-0.0074421014 0.047497138 0.19687462
-0.0026157338 0.047614686 0.19827741
0.0011853182 0.048468471 0.19898796
-0.011479727 0.051544249 0.19499987
-0.0075005866 0.052371029 0.19587862
-0.0026282147 0.052486148 0.19707105
0.0024053804 0.052525401 0.19858718
0.0058926772 0.053479422 0.199
-0.0065524261 0.057155956 0.19524319
-0.0025611129 0.057479843 0.19619444
0.002532348 0.057402775 0.19768484
0.0070478553 0.057731446 0.19889075
0.010247419 0.059511587 0.19900002
-0.0054643801 0.060604453 0.19500001
-0.002295889 0.062391806 0.19535471
0.0024637633 0.06252896 0.19666131
0.0075779427 0.062474415 0.1979499
0.011290208 0.063196614 0.19896941
-0.0012258656 0.066855893 0.1949999
0.0024991485 0.067538008 0.19560435
0.0075367847 0.067547567 0.19692414
0.012350244 0.067712106 0.19846387
0.016026754 0.068650335 0.19900009
-0.00027785785 0.070110887 0.19500001
0.0031407529 0.071817815 0.19508205
0.0075159618 0.072424576 0.19613877
0.012480618 0.072483085 0.19754393
0.016924372 0.072780304 0.19876833
0.020120209 0.074846998 0.19900002
0.0081481449 0.075017937 0.19599999
0.01276216 0.075249538 0.19712904
0.017612237 0.075598605 0.19869094
0.020700959 0.07575877 0.19900005
-0.08057376 -0.081636108 0.20000003
-0.077477634 -0.081388712 0.20056821
-0.072591804 -0.081734098 0.20209569
-0.067343742 -0.08192759 0.20337692
-0.063821226 -0.081345588 0.20400016
-0.076797523 -0.078066185 0.20020527
-0.072417401 -0.077442952 0.2013067
-0.067396916 -0.077425204 0.20266621
-0.063122191 -0.077229545 0.20387289
-0.075397566 -0.074128732 0.20000002
-0.072312035 -0.072747469 0.2005261
-0.067371048 -0.072463229 0.20194095
-0.062393591 -0.072500214 0.20348087
-0.05900988 -0.071342386 0.20400001
-0.071302764 -0.067996763 0.20000844
-0.06739229 -0.067612097 0.20095882
-0.062393468 -0.067632049 0.20270129
-0.057834648 -0.067377992 0.20367794
-0.054605912 -0.065266065 0.20400001
-0.070383832 -0.064220309 0.20000003
-0.067105524 -0.062900983 0.200289
-0.062446851 -0.062593259 0.2016317
-0.057468809 -0.062551461 0.20310311
-0.053382378 -0.062103778 0.20396301
-0.06567245 -0.057895917 0.1999999
-0.062461957 -0.057578359 0.20078072
-0.057378657 -0.057538129 0.20237032
-0.052468982 -0.057524614 0.2036449
-0.049062263 -0.056891706 0.20400023
-0.061438579 -0.052991576 0.20019855
-0.057492118 -0.052557517 0.20123406
-0.052521382 -0.052540563 0.20275077
-0.047975201 -0.052183647 0.20382701
-0.044822421 -0.050052457 0.20400001
-0.060398202 -0.049153905 0.20000003
-0.057304006 -0.047624245 0.20037366
-0.052462723 -0.047567014 0.20165928
-0.047547206 -0.047483925 0.20323835
-0.043658487 -0.04690516 0.20392957
-0.056221835 -0.042835746 0.20001948
-0.052528307 -0.042584043 0.20079692
-0.047515627 -0.042461798 0.20228927
-0.042710382 -0.042409647 0.20358711
-0.039528433 -0.040950302 0.20400001
-0.055387389 -0.03959154 0.2
-0.051913437 -0.037892159 0.20017274
-0.047526162 -0.03752875 0.20151688
-0.042417951 -0.037479021 0.20290634
-0.038271207 -0.036934711 0.20388514
-0.050860051 -0.033921774 0.19999993
-0.047402419 -0.032716759 0.20064756
-0.042473175 -0.032481465 0.20188619
-0.037405636 -0.032499533 0.20324297
-0.033896733 -0.031796124 0.20400022
-0.046090674 -0.028070809 0.20007864
-0.042564716 -0.027569419 0.20076422
-0.037500039 -0.027518971 0.20218664
-0.032830425 -0.027244687 0.20366651
-0.029978508 -0.025710693 0.20400003
-0.045266535 -0.024543658 0.2
-0.042029146 -0.022977173 0.20009023
-0.037498835 -0.022457436 0.20126943
-0.032533422 -0.02242892 0.20264383
-0.028490314 -0.021949245 0.20383783
-0.040881474 -0.0190266 0.19999994
-0.037457544 -0.017573191 0.20041697
-0.032484654 -0.017406303 0.20177902
-0.027559742 -0.017499015 0.20329374
-0.02451092 -0.016396003 0.20400001
-0.03625714 -0.013367546 0.2
-0.032288618 -0.012426314 0.20105419
-0.027460583 -0.012415136 0.20260923
-0.023073778 -0.012131101 0.20379405
-0.01958777 -0.010294241 0.20400003
-0.035013389 -0.0099598123 0.2
-0.032228101 -0.0076767551 0.20023504
-0.027417054 -0.0074074604 0.20156775
-0.022447858 -0.0074217347 0.20304398
-0.018832779 -0.0071884231 0.20397085
-0.030751644 -0.0033742604 0.19999988
-0.02746876 -0.0024213039 0.20058401
-0.022467013 -0.0023298098 0.2021742
-0.017757729 -0.002107111 0.20349987
-0.014087615 -0.00071608176 0.20400001
-0.026677215 0.0018520053 0.20004976
-0.022557233 0.002646388 0.20103125
-0.01754033 0.0025098152 0.20246625
-0.012663208 0.0028281063 0.20369045
-0.0093994467 0.004209395 0.20400001
-0.02525636 0.0056183878 0.2
-0.022159284 0.0073374119 0.20031415
-0.017553078 0.0074362322 0.20166385
-0.012464427 0.0074301609 0.20319349
-0.008416676 0.007987285 0.20393009
-0.020774748 0.011927008 0.19999988
-0.017519321 0.01258803 0.20073704
-0.012550489 0.012450758 0.20191479
-0.007530808 0.01252306 0.20328666
-0.0038720297 0.01369401 0.20393117
-0.016842399 0.017037278 0.20005508
-0.012539186 0.017573809 0.2008211
-0.0076702377 0.017453026 0.20245777
-0.0027563365 0.01763561 0.20357716
0.00038404125 0.019160047 0.20400001
-0.015168585 0.020367961 0.2
-0.012147877 0.022274757 0.2001916
-0.0076231253 0.02251374 0.20151909
-0.0026359102 0.0225203 0.20298176
0.0015095207 0.023004873 0.2039835
-0.010890927 0.026315665 0.19999991
-0.0075375382 0.027528241 0.20066838
-0.002663034 0.027523898 0.20224752
0.0024131804 0.027463503 0.2033971
0.0059805494 0.028104253 0.20400022
-0.0065738796 0.032037839 0.20007332
-0.0025752608 0.032516304 0.20102568
0.0023485199 0.032554716 0.20212902
0.0070362017 0.032754954 0.20367342
0.010312112 0.03437097 0.20400001
-0.0054115565 0.03528326 0.2
-0.0023200938 0.037323579 0.20035237
0.0023958571 0.037590079 0.20147823
0.0074343877 0.037518919 0.2030219
0.011722501 0.038216658 0.20394336
-0.0012171195 0.041909322 0.2000227
0.002399374 0.042559989 0.20088179
0.0073996577 0.042499512 0.20181057
0.012451492 0.042487945 0.20328228
0.016155703 0.043451566 0.2040002
-0.00041728112 0.045326225 0.2
0.0029220101 0.046931665 0.20021316
0.0073870462 0.04752982 0.20083429
0.012418392 0.047518622 0.20237516
0.017193742 0.047770016 0.20367751
0.02028838 0.04883597 0.20400001
0.0043868152 0.050322846 0.20000002
0.0078417091 0.052167084 0.20011991
0.012477667 0.052505206 0.20132329
0.017483028 0.052486695 0.20283225
0.021340622 0.053463154 0.20394616
0.0091743721 0.056508869 0.19999988
0.012485848 0.0575982 0.20053214
0.017388316 0.057562456 0.20179476
0.022421941 0.05742424 0.20338169
0.025824163 0.058256079 0.2040002
0.013443075 0.062217541 0.20002882
0.017535521 0.062615976 0.20071395
0.022421088 0.062919714 0.20216204
0.027194828 0.062758371 0.203712
0.030296776 0.064443998 0.20400001
0.0145208 0.065864496 0.20000003
0.018047703 0.067231134 0.20013367
0.022549313 0.06759844 0.20135137
0.027439056 0.067628235 0.20296447
0.031170834 0.06792739 0.20400028
0.01918027 0.071816258 0.19999988
0.022599196 0.072620951 0.20066266
0.027592173 0.072621621 0.202044
0.032427531 0.072583959 0.20349008
0.035655782 0.073766448 0.20400001
0.023190413 0.075804122 0.20011468
0.027612492 0.076149784 0.20137368
0.032689348 0.076329015 0.20282587
0.036688756 0.076722428 0.20396763
-0.060372621 -0.085093707 0.20700002
-0.057193905 -0.085215859 0.20747368
-0.052350488 -0.085558623 0.20882933
-0.049722943 -0.085223138 0.20900001
-0.065044053 -0.08427155 0.20500001
-0.061904907 -0.082801849 0.20545852
-0.057523321 -0.082466654 0.20666535
-0.052462254 -0.082625255 0.20829718
-0.048786663 -0.081803337 0.20899986
-0.060910217 -0.077942565 0.20499994
-0.057496667 -0.077515081 0.20575251
-0.05242325 -0.077594154 0.2074329
-0.047637329 -0.077316813 0.20869778
-0.044123735 -0.075905882 0.20900008
-0.057074171 -0.072796382 0.2052287
-0.052563976 -0.072380826 0.20629136
-0.047572963 -0.072554551 0.2079287
-0.043103326 -0.072330058 0.2089012
-0.055747893 -0.068429045 0.20499995
-0.052382592 -0.067495987 0.20536871
-0.047433618 -0.067606837 0.20695427
-0.042384721 -0.067524701 0.20831394
-0.038590755 -0.066466443 0.20899987
-0.051264033 -0.063277528 0.20504159
-0.047460292 -0.062487841 0.20594501
-0.042550251 -0.062456869 0.20749104
-0.037606694 -0.062503599 0.20883048
-0.034425046 -0.061158203 0.20900007
-0.046780746 -0.0576609 0.20518535
-0.042456996 -0.057499621 0.20653768
-0.037420731 -0.057566807 0.2078927
-0.033565439 -0.057263184 0.20899977
-0.04565236 -0.053205967 0.20499994
-0.042349532 -0.052619927 0.20570169
-0.037395902 -0.052505694 0.20734593
-0.032510277 -0.052367676 0.20870414
-0.029144645 -0.0510794 0.20900008
-0.041599244 -0.048115484 0.20515566
-0.037558474 -0.047442842 0.20630448
-0.032446843 -0.047577497 0.20795588
-0.027991721 -0.04714578 0.20899975
-0.024722347 -0.045160096 0.20900001
-0.040530626 -0.044156406 0.205
-0.037356455 -0.042598434 0.20547895
-0.032482114 -0.042547919 0.20706667
-0.027484844 -0.042381767 0.20828022
-0.02381693 -0.041951783 0.20899984
-0.036292113 -0.038387265 0.2050804
-0.032528929 -0.037472282 0.20598221
-0.027489532 -0.037355162 0.20730445
-0.022626493 -0.037363783 0.20861126
-0.019508164 -0.036106147 0.20900008
-0.031743042 -0.032745782 0.20517847
-0.027605297 -0.032374628 0.20637934
-0.022614611 -0.032450311 0.20759828
-0.018243821 -0.032067906 0.20878896
-0.030785171 -0.028921908 0.20499995
-0.0274891 -0.027445845 0.20550267
-0.022514641 -0.027512029 0.20686883
-0.01753206 -0.027485413 0.20847613
-0.014053895 -0.026889274 0.20899992
-0.02639517 -0.02312036 0.20509084
-0.022468919 -0.022477508 0.20593172
-0.017418833 -0.022500655 0.20755629
-0.012908853 -0.022216387 0.2088777
-0.0095804501 -0.020625811 0.20900004
-0.025209738 -0.019551586 0.20500001
-0.022203438 -0.017696965 0.2052934
-0.017402634 -0.017431207 0.20647989
-0.012501725 -0.017423686 0.20795417
-0.0085258475 -0.017127864 0.20895882
-0.021169811 -0.013645818 0.20499994
-0.01760219 -0.012536127 0.2055147
-0.012596955 -0.012521519 0.20669553
-0.0075209173 -0.012479446 0.2084657
-0.0040349346 -0.011324432 0.20899999
-0.016468063 -0.0077134171 0.20503245
-0.012546103 -0.0075239781 0.2058537
-0.0075272471 -0.0074542766 0.20731801
-0.0027979561 -0.0071689822 0.2087649
0.00060383772 -0.0059052422 0.20900007
-0.015906187 -0.0038799865 0.20499995
-0.012262046 -0.0026466765 0.2052044
-0.0074547161 -0.0024108477 0.20628025
-0.0025257263 -0.0024286325 0.20771924
0.0013754724 -0.0021912213 0.20895216
-0.010921236 0.0010724708 0.20499995
-0.00730323 0.0024332742 0.2055002
-0.002518476 0.0025570658 0.20716354
0.0024301296 0.0026215441 0.20866653
0.0060716672 0.0037011248 0.20899999
-0.0063358382 0.0068726209 0.20509902
-0.002507793 0.0074992669 0.20621455
0.0024525509 0.0075479788 0.20756035
0.0072121406 0.0077450834 0.20864467
0.010416733 0.0091483742 0.20900004
-0.0051230765 0.010430236 0.20500001
-0.0019319305 0.012189315 0.20530188
0.0023988902 0.012520804 0.20633058
0.0074737328 0.012499754 0.20781018
0.011788387 0.012897017 0.20891976
-0.00065937359 0.015696166 0.205
0.0026103863 0.017284472 0.20541777
0.0074739149 0.017501749 0.20679195
0.01251416 0.017539056 0.20824662
0.015992908 0.018121039 0.20899992
0.0035129921 0.021701081 0.20500964
0.0075310324 0.022472596 0.20562707
0.012553113 0.022500215 0.20732518
0.017051905 0.022773858 0.20873927
0.020565698 0.024606485 0.20900002
0.0082295369 0.027163327 0.20513149
0.012490874 0.027391389 0.20637301
0.017522087 0.027549326 0.20767896
0.021698503 0.02796624 0.20870236
0.0092830108 0.031446304 0.20499995
0.01253282 0.0324485 0.20542754
0.017500691 0.032555759 0.20690262
0.022605767 0.032578144 0.20839129
0.026171716 0.033620935 0.20899992
0.013575304 0.03680855 0.20500964
0.017569497 0.037496921 0.2058581
0.022489646 0.037536222 0.20722201
0.02718794 0.037760697 0.20867406
0.030290477 0.03981512 0.20900001
0.018036474 0.04206223 0.20508657
0.022426816 0.04255601 0.20622297
0.027445076 0.042584013 0.2078723
0.031840082 0.04302334 0.20890607
0.019093413 0.046094954 0.20499995
0.022631785 0.047363307 0.20550035
0.027600413 0.047497746 0.20681092
0.03262936 0.047490202 0.20833331
0.035915788 0.04832584 0.20899999
0.023462335 0.052210588 0.20503272
0.027456708 0.052472774 0.20578222
0.032437317 0.052612018 0.20732751
0.037210468 0.052730456 0.20865183
0.040455151 0.054236554 0.20900002
0.024659427 0.055292554 0.20500001
0.028004605 0.05715853 0.2051312
0.032491229 0.057380017 0.20628387
0.037627105 0.057489999 0.20782942
0.042106804 0.058005009 0.20883907
0.045325395 0.059904367 0.20900001
0.029117482 0.060956709 0.20499995
0.032535281 0.062469017 0.20536393
0.03746764 0.062476598 0.20682681
0.042558946 0.062558502 0.20823647
0.046545032 0.063252598 0.20899983
0.033596069 0.067286089 0.20499994
0.037571099 0.067595996 0.20580575
0.042467628 0.067503057 0.20725848
0.047233943 0.067637064 0.20879455
0.050302468 0.069671899 0.20900002
0.034379922 0.070525132 0.20500001
0.037814438 0.072336525 0.20513082
0.042540126 0.072577193 0.20631105
0.047575347 0.072550796 0.20787394
0.051881693 0.072912976 0.20895566
0.038886551 0.076276749 0.20499994
0.042376239 0.076782666 0.20541818
0.047467496 0.077045687 0.20684518
0.052458674 0.077370971 0.20832103
0.056131564 0.078457914 0.20899984
-0.047345541 -0.085949391 0.21045908
-0.042320117 -0.08619988 0.21196966
-0.037510276 -0.086442165 0.21338736
-0.034565728 -0.085961565 0.21400002
-0.04673193 -0.082893729 0.21015644
-0.042597786 -0.082464069 0.21113299
-0.037573975 -0.082450092 0.21262455
-0.033231106 -0.082087204 0.21375982
-0.045339305 -0.078991696 0.21000002
-0.042128507 -0.077714682 0.21030925
-0.037395377 -0.07746359 0.21163277
-0.032382432 -0.077501997 0.21306659
-0.029181473 -0.07686986 0.2139768
-0.041005891 -0.073400363 0.21000002
-0.037509162 -0.072615944 0.21075962
-0.032505516 -0.072556332 0.21219593
-0.027659278 -0.072341889 0.21359469
-0.024723962 -0.0713026 0.214
-0.036802921 -0.068101488 0.21013941
-0.03248933 -0.067535281 0.21114008
-0.027550038 -0.067479663 0.21273935
-0.023648879 -0.067042343 0.21391958
-0.035305463 -0.064297058 0.21000001
-0.032326862 -0.062643632 0.21041052
-0.027589273 -0.062440407 0.21185246
-0.022523064 -0.062485013 0.21323095
-0.019061578 -0.061748255 0.21400002
-0.031160487 -0.057741936 0.20999984
-0.027556824 -0.057449467 0.21095052
-0.022415495 -0.057468075 0.21246527
-0.017922614 -0.057362217 0.21383135
-0.01481479 -0.055343233 0.21400002
-0.030599767 -0.054279774 0.21000002
-0.027143756 -0.052732386 0.21020773
-0.022563005 -0.052416399 0.21138133
-0.017502885 -0.052504919 0.21312334
-0.014090833 -0.052178394 0.21398567
-0.025977418 -0.048336692 0.21000002
-0.022545613 -0.047504019 0.21060775
-0.017531591 -0.04753837 0.21212013
-0.012840847 -0.047096305 0.21355711
-0.0093546342 -0.045767609 0.21400002
-0.021576716 -0.042826869 0.21007906
-0.017424438 -0.042538323 0.21106245
-0.012466525 -0.042415965 0.21251583
-0.0082910331 -0.042133685 0.21384569
-0.020372253 -0.039239354 0.21000001
-0.01728284 -0.037670679 0.21044812
-0.012532937 -0.037513323 0.21165225
-0.0075747264 -0.03755261 0.21328889
-0.0036559119 -0.036297273 0.21399996
-0.01606047 -0.033269804 0.21001591
-0.012496229 -0.032540228 0.21070307
-0.0074945344 -0.032554146 0.21222977
-0.0026596102 -0.032388415 0.21350825
0.00054858997 -0.030705305 0.214
-0.011804807 -0.027766237 0.21022198
-0.0074560079 -0.027483804 0.21111736
-0.0025843114 -0.027489869 0.21251629
0.0018389946 -0.02710714 0.21368508
0.0050035538 -0.025197757 0.21400002
-0.010743798 -0.023673994 0.21000001
-0.0073339348 -0.022594567 0.21037398
-0.0025732685 -0.022585416 0.2115818
0.0023684753 -0.02241936 0.21306086
0.006173478 -0.021817051 0.21397434
-0.0062385765 -0.018118277 0.2099999
-0.0025425481 -0.017554747 0.21074983
0.0025066673 -0.017416418 0.21206701
0.0073878765 -0.017367763 0.21354933
0.010716493 -0.015799463 0.214
-0.0051612081 -0.014808098 0.21000001
-0.0021495738 -0.012819085 0.21011505
0.0024964423 -0.01244543 0.21122855
0.0076208189 -0.012542829 0.21287774
0.012124735 -0.012300939 0.21396698
0.015384591 -0.010420564 0.21400003
-0.0011211371 -0.0091005107 0.21000002
0.00271679 -0.0077068782 0.21038465
0.0075552301 -0.0076284162 0.21191496
0.012576929 -0.0076216306 0.21336754
0.016487921 -0.0072738915 0.21400014
0.003875901 -0.0027738153 0.21003012
0.0075506591 -0.0024663098 0.21093777
0.012517128 -0.0024905454 0.21239454
0.017377988 -0.0023655279 0.21355918
0.020836687 -0.00066504627 0.21400003
0.0046495665 0.00041793531 0.21000001
0.007997307 0.002219762 0.21025823
0.012458749 0.002608133 0.21135215
0.017457904 0.0026239424 0.21264304
0.022165572 0.0028745271 0.21368504
0.025175797 0.0045930645 0.21400003
0.0092586298 0.005959834 0.21000002
0.012564961 0.0073791458 0.21040504
0.017393885 0.0074980687 0.21157734
0.022501411 0.0076387399 0.21308568
0.025942581 0.0082814526 0.21399997
0.013953306 0.011606893 0.21000002
0.017539019 0.012527318 0.21073203
0.022438314 0.012424096 0.21226083
0.027244359 0.012713183 0.21366312
0.030505104 0.014168686 0.214
0.018307354 0.017191635 0.21023929
0.022565868 0.017510887 0.21128847
0.027577041 0.017459376 0.21279705
0.03190235 0.017861556 0.21388394
0.03508497 0.019843128 0.21400002
0.019171827 0.021475304 0.21000002
0.022572253 0.022405554 0.21051292
0.02755272 0.022449275 0.21184304
0.032489803 0.022501897 0.21326077
0.036151797 0.02329714 0.21399994
0.023674985 0.026661914 0.21002498
0.027376264 0.027497355 0.21081759
0.032544106 0.027457798 0.21219443
0.037309997 0.027689291 0.21348889
0.040486585 0.029064097 0.214
0.028084105 0.032082558 0.21019837
0.032477483 0.032519024 0.21122825
0.037498761 0.032547526 0.21261677
0.041878354 0.03278913 0.21373805
0.029428283 0.036212165 0.21000002
0.032592926 0.037476473 0.21045882
0.037469033 0.037460491 0.21164945
0.042590201 0.037516691 0.21325998
0.046094444 0.038188335 0.21399999
0.033486303 0.041349981 0.21006095
0.037445918 0.042509411 0.2107989
0.042428702 0.042510707 0.21232383
0.047339797 0.042606995 0.21343184
0.050629303 0.044095911 0.214
0.038130194 0.047261827 0.21029909
0.042550378 0.047607787 0.21140869
0.047484878 0.047471989 0.21262197
0.051844586 0.047936819 0.21380901
0.055257209 0.049988601 0.21400002
0.039269451 0.050903101 0.21000002
0.042619821 0.05253626 0.21048066
0.047417305 0.052542072 0.21171303
0.052475207 0.052483842 0.21324643
0.056256466 0.053430825 0.21399994
0.043805853 0.056272246 0.21000002
0.04758158 0.057504553 0.21082892
0.052567568 0.057386678 0.21222258
0.057406757 0.057816468 0.21342626
0.060834166 0.059062824 0.21400008
0.048447378 0.061858628 0.21024066
0.052486155 0.062420662 0.21112067
0.05751596 0.062568888 0.21240415
0.061807226 0.062924527 0.21376877
0.049560837 0.066629425 0.21000002
0.052443545 0.067434117 0.21039009
0.057582945 0.067586392 0.21153527
0.062594391 0.067578517 0.2129339
0.066088632 0.068283245 0.21392983
0.053860467 0.071690924 0.21001473
0.057537261 0.072485059 0.21081293
0.062472917 0.072562419 0.21198472
0.067038156 0.072817177 0.21353748
0.070120968 0.074636966 0.21400002
0.05810288 0.07700491 0.21019825
0.062476844 0.077454232 0.21126223
0.067558154 0.077512711 0.21282363
0.071568564 0.077936925 0.21383946
0.059334408 0.080177478 0.21000002
0.062774815 0.080310524 0.21055172
0.067681417 0.080607682 0.21222217
0.072530232 0.080894157 0.21350688
0.075252503 0.081552684 0.214
-0.02131778 -0.090026677 0.219
-0.019688025 -0.090026677 0.21900001
-0.035506073 -0.088382356 0.21499999
-0.032232054 -0.086976655 0.21522585
-0.027469821 -0.0871206 0.21635292
-0.02247661 -0.087449118 0.21793388
-0.018633429 -0.087088473 0.21894312
-0.031120924 -0.083326146 0.21500009
-0.027527532 -0.082543857 0.21559227
-0.022510123 -0.082522027 0.21685012
-0.017669678 -0.082483172 0.21848474
-0.014403668 -0.08065626 0.21900001
-0.026776521 -0.077801965 0.2150481
-0.022514001 -0.077579871 0.21598405
-0.017468015 -0.077462889 0.21756743
-0.01360711 -0.077170573 0.21892548
-0.025763933 -0.074438758 0.21499997
-0.022484655 -0.07263153 0.21532223
-0.017541798 -0.072478101 0.21672264
-0.012504445 -0.072386883 0.21833532
-0.0088021001 -0.071384147 0.21899994
-0.021495862 -0.068083473 0.21500011
-0.017496316 -0.067555644 0.21582182
-0.012393846 -0.067397021 0.21723121
-0.0077563785 -0.067206554 0.21863584
-0.0045132008 -0.065637186 0.21900001
-0.016949501 -0.062837087 0.21508963
-0.012617778 -0.062467415 0.21631683
-0.0076341596 -0.062477559 0.21778795
-0.0030035519 -0.062311497 0.21883443
5.0111947e-05 -0.060628626 0.21900003
-0.015772901 -0.058571085 0.21500006
-0.012598353 -0.05756462 0.21558782
-0.0076194303 -0.05748463 0.21706842
-0.0026993325 -0.057595704 0.21814811
0.0010660629 -0.056900259 0.21899991
-0.011763174 -0.052695047 0.21504809
-0.0076315431 -0.0524684 0.21608169
-0.0026444001 -0.052446142 0.21742308
0.002255189 -0.052357819 0.218612
0.005542988 -0.050829284 0.21900004
-0.011047791 -0.048935089 0.21500005
-0.0074244509 -0.047716174 0.21517967
-0.0026012266 -0.047436059 0.21659176
0.0023746467 -0.047535434 0.21755528
0.0066536628 -0.046990927 0.21882454
-0.0061363764 -0.043193892 0.21500009
-0.0026218849 -0.042538274 0.21560097
0.0023591211 -0.042546846 0.2166748
0.0073481067 -0.042401545 0.21841572
0.010621957 -0.041150909 0.21900003
-0.0021175584 -0.038151205 0.21504697
0.0024217048 -0.037521303 0.21604733
0.0074161962 -0.037521556 0.21750791
0.012038115 -0.037080478 0.21880983
0.015656248 -0.035618838 0.21900001
-0.00030635609 -0.0340451 0.21500002
0.0024923892 -0.032735243 0.21522096
0.0073949969 -0.03247482 0.21631566
0.012532119 -0.032417923 0.21793155
0.016563745 -0.03206455 0.21886788
0.0038536103 -0.028679062 0.21500008
0.0073927268 -0.027499408 0.21557966
0.012428507 -0.027321773 0.21692742
0.017527068 -0.027436577 0.21832418
0.020988457 -0.026402649 0.21899995
0.0081094988 -0.02309709 0.21515602
0.01242313 -0.02249516 0.21603164
0.01746814 -0.022513485 0.21740685
0.021735972 -0.022247722 0.2188454
0.0093951551 -0.019181883 0.21499999
0.012501558 -0.017756224 0.21518502
0.017490247 -0.017500253 0.21663643
0.022433719 -0.017541736 0.21815298
0.026016954 -0.016776385 0.21899992
0.014263577 -0.013665723 0.21500006
0.01749859 -0.012595708 0.21536307
0.022488799 -0.012431273 0.21707103
0.027441122 -0.012442485 0.21846013
0.031083353 -0.011231125 0.21899994
0.018818814 -0.0079250233 0.21501075
0.022530103 -0.0073665897 0.21587956
0.027545774 -0.0073868637 0.21751006
0.032266006 -0.0072570308 0.21881285
0.035180375 -0.0056433799 0.21900001
0.019693485 -0.0040259873 0.21499999
0.022731552 -0.0025369222 0.21519141
0.027490193 -0.0023830342 0.21659029
0.032554932 -0.0023715966 0.21837926
0.036066394 -0.0014112528 0.21899994
0.024364417 0.0013847507 0.21500005
0.02755175 0.0026287748 0.21567582
0.032368485 0.0026267937 0.2171282
0.037373573 0.0026125086 0.21859886
0.040405937 0.0041818949 0.219
0.028222552 0.0073992163 0.21510008
0.032509193 0.0074234507 0.21617709
0.037478983 0.0073734373 0.21760978
0.042089082 0.0079485914 0.2188129
0.045502156 0.0097815236 0.21900001
0.029500812 0.011028105 0.21499997
0.032685772 0.012371965 0.21538281
0.037433334 0.012401932 0.21658808
0.042558048 0.012411376 0.21809675
0.046565149 0.013238333 0.21897693
0.034019552 0.01674114 0.21500009
0.037488163 0.017432159 0.21572089
0.042477839 0.017467475 0.21727133
0.047411166 0.0175361 0.21855313
0.050874311 0.018552549 0.21899994
0.038223181 0.022112858 0.21513231
0.04243708 0.022395529 0.21614757
0.047492024 0.022540985 0.21748585
0.052010827 0.022739697 0.21882138
0.055099595 0.024480551 0.21900001
0.039464753 0.025814965 0.21499999
0.042704817 0.027378434 0.21525572
0.047474407 0.027469471 0.21663934
0.052555706 0.027482318 0.21820408
0.056612261 0.028099366 0.21896109
0.044085879 0.031545606 0.21500008
0.047532268 0.032455478 0.21578479
0.05250955 0.032573238 0.21709689
0.057547603 0.032389231 0.21848331
0.060959447 0.033459652 0.21899994
0.048278768 0.037211757 0.2150631
0.052470692 0.037438106 0.21605156
0.057601649 0.03753297 0.21771562
0.062229384 0.037698679 0.21870331
0.065395504 0.039438818 0.219
0.049394835 0.040729087 0.21499999
0.052697629 0.042360045 0.21528237
0.057544086 0.042478975 0.21651495
0.062544353 0.042455155 0.21794769
0.066515259 0.043168195 0.21899991
0.053933211 0.046688795 0.21500009
0.057426892 0.047465749 0.21555488
0.06259387 0.047565784 0.21728753
0.067552984 0.047591731 0.21861392
0.070559628 0.048729409 0.21900004
0.058284305 0.052062429 0.21504074
0.062356528 0.052516911 0.215983
0.067528397 0.052492648 0.21784206
0.07175383 0.05288272 0.21897286
0.059363753 0.055860281 0.21499997
0.062716208 0.057227314 0.21533333
0.067390919 0.057404935 0.21661539
0.072472543 0.057548247 0.21831289
0.075906135 0.058379032 0.21899992
0.064002059 0.06188697 0.21500009
0.067383841 0.062486853 0.21573099
0.072300926 0.062451161 0.21722187
0.077258147 0.062684789 0.2186892
0.080134436 0.063995525 0.219
0.068122283 0.067101076 0.21515757
0.072355084 0.06744469 0.21637118
0.0773587 0.067495987 0.21789274
0.081931286 0.067957602 0.21883455
0.069209017 0.071504481 0.21500006
0.072462291 0.072463132 0.2154894
0.077414699 0.072478376 0.21680802
0.082450904 0.072400585 0.21821731
0.086245999 0.073121443 0.21899991
0.073590107 0.076778561 0.21500011
0.077333726 0.077441141 0.21577111
0.082444772 0.077522181 0.21744478
0.087353908 0.077662118 0.21866126
0.090630151 0.079026453 0.21900004
0.077660285 0.081179939 0.21528575
0.082419343 0.081430301 0.21637364
0.087477624 0.08168079 0.2177088
0.091799788 0.08225517 0.21893327
-0.017085098 -0.090359889 0.22029166
-0.012411418 -0.090630807 0.22155325
-0.0073400582 -0.09092772 0.22289383
-0.0039494568 -0.091005512 0.22399999
-0.016375896 -0.08794371 0.22002408
-0.012557535 -0.087569669 0.2210409
-0.0074772257 -0.087455288 0.22248916
-0.0026817943 -0.087253489 0.22370899
0.00031585345 -0.08585079 0.22399999
-0.015508375 -0.084003724 0.22000001
-0.012404098 -0.082801767 0.22045359
-0.0074976175 -0.082420252 0.22156745
-0.0025278707 -0.082454458 0.22301914
0.0016348355 -0.082100503 0.22393607
-0.011251596 -0.077876836 0.21999991
-0.0074205124 -0.077450328 0.22065054
-0.0025169363 -0.077470638 0.22197641
0.0023996867 -0.077334054 0.22340873
0.0056919903 -0.075916924 0.22399999
-0.01050048 -0.074577831 0.22000001
-0.006811576 -0.072802424 0.22009975
-0.0025525494 -0.072456926 0.22100027
0.0023952061 -0.072456114 0.22266063
0.0067369547 -0.072127774 0.2238891
-0.005568679 -0.06868352 0.21999995
-0.0023942816 -0.06769488 0.22040002
0.0024727329 -0.067529581 0.22166501
0.0074431049 -0.067489266 0.22340822
0.011261831 -0.066447988 0.22399999
-0.00088195177 -0.063788056 0.21999992
0.0024545842 -0.062539726 0.22071201
0.007375103 -0.062542066 0.22241503
0.012293662 -0.062466074 0.22373976
0.015638079 -0.06069928 0.22399999
0.0033473934 -0.057879094 0.22012025
0.0075729582 -0.0576155 0.22141552
0.012580481 -0.057472974 0.22283313
0.01657044 -0.057391334 0.22371282
0.020054819 -0.055330791 0.22400001
0.0045071528 -0.054069292 0.22000001
0.007753117 -0.052758325 0.2205153
0.012541254 -0.052476995 0.22207022
0.017428624 -0.052513056 0.22316355
0.02132296 -0.051858075 0.22398669
0.0088092517 -0.048247047 0.22006673
0.012484126 -0.047453225 0.22108306
0.017538041 -0.047555495 0.22242069
0.022390051 -0.047396593 0.22348727
0.025829269 -0.045809951 0.22399999
0.0097695682 -0.044290297 0.22000001
0.012739488 -0.042619716 0.22023517
0.017486764 -0.04261288 0.2214296
0.022535149 -0.042481977 0.22273195
0.026929041 -0.042265579 0.22390661
0.013996827 -0.038770445 0.21999997
0.017708413 -0.037628096 0.22044322
0.022455258 -0.037593652 0.22219414
0.027369458 -0.037509397 0.22345659
0.030986052 -0.03665477 0.22399999
0.018793657 -0.033011124 0.22010452
0.02246039 -0.032540433 0.22118102
0.027464038 -0.032480709 0.22237849
0.032237913 -0.032340538 0.22368558
0.03556684 -0.030412296 0.22399999
0.019696696 -0.029732497 0.22000001
0.022987695 -0.027836559 0.220102
0.027518457 -0.027514923 0.22133553
0.032428756 -0.027454427 0.22275129
0.036758251 -0.027070902 0.22385602
0.040058382 -0.025261546 0.22400001
0.024019379 -0.02310488 0.22000004
0.027413972 -0.022479596 0.22049196
0.0324043 -0.022416845 0.22180244
0.037442062 -0.022610292 0.22338322
0.041174091 -0.021889597 0.22400014
0.028251063 -0.017910693 0.21999978
0.032611571 -0.01750512 0.22091448
0.037477832 -0.017461957 0.2222743
0.042183582 -0.017331298 0.22383836
0.045244489 -0.015238466 0.22400001
0.029701786 -0.014601755 0.22000001
0.032933835 -0.012914464 0.22019529
0.037395351 -0.012497474 0.22120647
0.042544223 -0.012585084 0.22294438
0.046299499 -0.011799551 0.2239726
0.034513004 -0.0086927833 0.21999994
0.037644271 -0.0075479699 0.2204046
0.042479835 -0.0075140395 0.22183159
0.047369022 -0.0074748499 0.22351509
0.050811931 -0.0061543682 0.22399999
0.038101412 -0.0028192648 0.22001565
0.042404585 -0.0023980092 0.22077489
0.047451776 -0.0023905006 0.22229442
0.05217522 -0.0022759794 0.22377501
0.055246267 -1.8233855e-05 0.22400001
0.039388534 0.00066570955 0.22000001
0.042550806 0.0024608893 0.22016555
0.047455568 0.0025415095 0.22128028
0.052586984 0.0025460629 0.22304992
0.056230426 0.0031454912 0.22399999
0.043693095 0.0059662224 0.21999998
0.047508299 0.007410292 0.22048046
0.052537594 0.0075196298 0.22193408
0.057424631 0.007622791 0.22350319
0.060617585 0.0085446946 0.22399999
0.048537269 0.011916754 0.22002144
0.052524872 0.01262721 0.22077551
0.057496928 0.012506631 0.22243018
0.062276661 0.012671232 0.22378863
0.065584816 0.014324558 0.22399999
0.049893875 0.015295131 0.22000001
0.053059909 0.017212797 0.22011793
0.057631113 0.0174786 0.22142877
0.062570915 0.017493073 0.22271417
0.066618569 0.018001631 0.22378501
0.054363705 0.021415137 0.21999995
0.057705868 0.022435604 0.22055566
0.062549651 0.022572218 0.22164904
0.067434639 0.022521619 0.22328915
0.070883982 0.023722498 0.22400001
0.058483835 0.026598735 0.22008865
0.062333059 0.027547253 0.22092658
0.067427985 0.027487868 0.22246319
0.072220176 0.027722105 0.22380716
0.075249828 0.029308558 0.22400002
0.063132674 0.032199554 0.22026338
0.067438118 0.032520868 0.22159787
0.07249397 0.032427177 0.22319885
0.076596864 0.033286557 0.22400017
0.064377427 0.036198646 0.22
0.067573741 0.037433259 0.22058444
0.072544664 0.037494693 0.22220458
0.07750237 0.03751374 0.22365856
0.080758058 0.039073396 0.22399999
0.068615995 0.041943796 0.22004539
0.072577395 0.042419355 0.22113891
0.077522032 0.04253722 0.22279488
0.082264595 0.042662114 0.22385383
0.085436828 0.044900015 0.22400001
0.069722146 0.045192014 0.22000001
0.072883405 0.047385454 0.22032514
0.077524453 0.047464713 0.22183652
0.0824764 0.04749082 0.22321902
0.086083464 0.048078235 0.22399999
0.073995732 0.051876284 0.22000007
0.077566385 0.052461665 0.22068083
0.082432501 0.052487101 0.22205472
0.087346867 0.052567251 0.22350319
0.090869896 0.053974405 0.22400001
0.074997552 0.055036116 0.22000001
0.078014173 0.057097193 0.22009736
0.08247447 0.057493187 0.22117063
0.087459914 0.057467997 0.22243017
0.092134625 0.057785645 0.22373968
0.095327482 0.059303544 0.22400001
0.079290643 0.060699504 0.22000001
0.082582466 0.062395431 0.22013673
0.087467819 0.062583692 0.22150016
0.092500664 0.062353846 0.22315593
0.096391052 0.063143119 0.22397509
0.083617322 0.066191368 0.22000001
0.087600842 0.067556322 0.22057238
0.092549488 0.067471921 0.22201696
0.097412698 0.067603312 0.22344582
0.088507898 0.072068848 0.22004941
0.092554644 0.072483741 0.22101887
0.097519241 0.072448939 0.22238915
0.089524411 0.075661853 0.22000001
0.092697382 0.077253923 0.22032912
0.097477861 0.077473469 0.22161309
0.093786888 0.081319451 0.21999997
0.097437456 0.082288958 0.22065872
-0.0016088412 -0.091586009 0.22509623
0.0026097742 -0.091679171 0.22620714
0.00765651 -0.092073463 0.22791143
0.011831953 -0.092045419 0.22896746
-0.00069269526 -0.089309305 0.22499998
0.0026560149 -0.087620571 0.22551821
0.0075542028 -0.087493829 0.22716859
0.012525667 -0.08748126 0.22827667
0.016018601 -0.086448602 0.22900008
0.0039601861 -0.08305306 0.22508343
0.007546932 -0.082402304 0.22615591
0.012489647 -0.082401298 0.22751263
0.016962623 -0.082109839 0.22874175
0.02044837 -0.080366634 0.229
0.0047026109 -0.07944227 0.22500001
0.0077301813 -0.077738471 0.22523038
0.012414814 -0.07748799 0.22662026
0.01737793 -0.07746511 0.2278249
0.021432877 -0.077055067 0.22881824
0.0089367395 -0.073302552 0.2250001
0.012333386 -0.072474688 0.2256168
0.017365573 -0.072489493 0.22688307
0.022364762 -0.072666772 0.2283131
0.025533834 -0.071095698 0.22900005
0.013094051 -0.068024263 0.2250369
0.017640864 -0.067623615 0.22628753
0.022493567 -0.067447051 0.22767715
0.026880654 -0.067253366 0.22890994
0.014669309 -0.064074188 0.22499998
0.017717766 -0.062639631 0.2253013
0.022551537 -0.062460061 0.22665599
0.027667644 -0.0625287 0.22844599
0.031157186 -0.061857112 0.22900008
0.019072374 -0.058365531 0.22499999
0.022477696 -0.057535063 0.2257188
0.027449489 -0.057491068 0.22721398
0.032404907 -0.057373784 0.22872272
0.035534147 -0.055836018 0.22900003
0.023355206 -0.053020455 0.22510016
0.02747344 -0.052592479 0.22626095
0.03239568 -0.052408189 0.22771971
0.03706912 -0.051959097 0.22888041
0.040384483 -0.050114155 0.22900002
0.024744732 -0.049306598 0.22499999
0.027826514 -0.047723062 0.22542471
0.032623388 -0.047452401 0.22683971
0.037443154 -0.04757043 0.22810413
0.041416377 -0.047248591 0.22894573
0.029180825 -0.043334831 0.22499999
0.032563478 -0.042535592 0.22595267
0.037479334 -0.042581517 0.22736309
0.042240832 -0.042321946 0.22863713
0.045789637 -0.040902372 0.22900005
0.033070248 -0.037910853 0.22512519
0.037450243 -0.03749552 0.2263615
0.042449273 -0.037406832 0.22787355
0.046290074 -0.037445199 0.22898896
0.034244608 -0.033872116 0.22499995
0.037475888 -0.032668706 0.22547135
0.0425287 -0.032490678 0.2270373
0.047406659 -0.032497663 0.22847345
0.051239822 -0.031528492 0.22900006
0.038900882 -0.028325899 0.22501828
0.042497344 -0.027482288 0.22584727
0.04749677 -0.027551953 0.22727951
0.052364897 -0.027222909 0.22865228
0.055451535 -0.025662774 0.229
0.043512054 -0.022850018 0.22508062
0.047532439 -0.022486469 0.2261856
0.052580815 -0.022581777 0.22786556
0.05694567 -0.021821577 0.22885056
0.044460431 -0.018420065 0.22499995
0.047448009 -0.017623832 0.22541222
0.052482117 -0.017483588 0.22677109
0.057483505 -0.017434176 0.22823915
0.060926534 -0.016348479 0.22900006
0.048460852 -0.012952503 0.22513878
0.05249681 -0.012486413 0.22605892
0.057416715 -0.012486961 0.22729412
0.061991554 -0.012224561 0.2286365
0.065341145 -0.01056906 0.22900002
0.049911555 -0.0095268181 0.22500001
0.052960988 -0.0078136045 0.22530386
0.057546359 -0.0075134831 0.22653542
