# .PCD v0.7 - Point Cloud Data file format
VERSION 0.7
FIELDS x y z rgb normal_x normal_y normal_z curvature
SIZE 4 4 4 4 4 4 4 4
TYPE F F F U F F F F
COUNT 1 1 1 1 1 1 1 1
WIDTH 79
HEIGHT 1
VIEWPOINT 0 0 0 1 0 0 0
POINTS 79
DATA ascii
0.063267104 0.062222596 0.20624575 4294901760 -0.065588638 -0.02419224 0.99755347 0
0.043138988 0.063176788 0.20492996 4294901760 -0.064979352 -0.066855244 0.99564457 0
0.023039209 0.063991643 0.20372109 4294901760 -0.074232332 -0.049137417 0.99602968 0
0.0029168008 0.06482619 0.20260777 4294901760 -0.048111998 -0.043263514 0.99790454 0
-0.017186079 0.065821238 0.20144373 4294901760 -0.066203937 -0.056058642 0.99623013 0
-0.037254155 0.066895388 0.20020784 4294901760 -0.073394537 -0.042744812 0.99638653 0
0.082236484 0.045353733 0.20687675 4294901760 -0.074090347 -0.051990423 0.99589539 0
0.062471658 0.046234637 0.20562445 4294901760 -0.071845151 -0.041224767 0.99656349 0
0.042309981 0.047146518 0.20410357 4294901760 -0.063839383 -0.033149969 0.99740946 0
0.022260366 0.048024729 0.20309812 4294901760 -0.072019801 -0.035350434 0.99677658 0
0.0022562407 0.048895143 0.20180058 4294901760 -0.06498944 -0.047070283 0.99677521 0
-0.017730828 0.049811505 0.20048155 4294901760 -0.059035912 -0.054014195 0.99679345 0
-0.037781496 0.050742749 0.19944416 4294901760 -0.065875106 -0.038708113 0.99707681 0
-0.057950161 0.051698837 0.19821328 4294901760 -0.046368752 -0.030106965 0.9984706 0
-0.077787228 0.052607153 0.19740531 4294901760 -0.058156867 -0.045771249 0.99725765 0
0.081450313 0.029094422 0.20609753 4294901760 -0.066369951 -0.033940837 0.99721766 0
0.061712492 0.029908312 0.20477267 4294901760 -0.071032152 -0.054064304 0.9960078 0
0.041558597 0.030808473 0.20350291 4294901760 -0.056112517 -0.037741024 0.99771088 0
0.021543272 0.031702921 0.20228313 4294901760 -0.080367275 -0.051499184 0.99543405 0
0.0015680101 0.032600131 0.20102081 4294901760 -0.060519546 -0.041009083 0.99732423 0
-0.018412763 0.033540431 0.19984896 4294901760 -0.048324894 -0.024350557 0.9985348 0
-0.038451072 0.03449446 0.19872458 4294901760 -0.060038768 -0.042605754 0.99728638 0
-0.058689781 0.035467394 0.19771971 4294901760 -0.049116507 -0.035183262 0.99817318 0
-0.078588575 0.036508657 0.19657905 4294901760 -0.060502253 -0.041858636 0.99729002 0
0.080682442 0.012881753 0.20541236 4294901760 -0.084342688 -0.047332857 0.99531198 0
0.060993124 0.013719876 0.20399018 4294901760 -0.06270314 -0.035383936 0.99740475 0
0.040827405 0.014615246 0.20285419 4294901760 -0.055468742 -0.034793034 0.99785405 0
0.020822672 0.015518808 0.20154566 4294901760 -0.084076516 -0.031816386 0.99595124 0
0.00086747436 0.016420359 0.20037335 4294901760 -0.051097453 -0.039306249 0.99791986 0
-0.019094814 0.017352307 0.19928043 4294901760 -0.050220348 -0.037654225 0.9980281 0
-0.039124019 0.018286154 0.19819877 4294901760 -0.052670602 -0.030802231 0.99813676 0
-0.059327614 0.019229501 0.19704807 4294901760 -0.067239769 -0.03589515 0.99709094 0
-0.079131372 0.020216588 0.19591992 4294901760 -0.040227056 -0.042545091 0.9982844 0
0.080107629 -0.0033313027 0.20429192 4294901760 -0.069724515 -0.044728704 0.99656302 0
0.060308088 -0.0024599363 0.20332883 4294901760 -0.04540946 -0.044973504 0.99795562 0
0.040099766 -0.0015492622 0.20216785 4294901760 -0.067641452 -0.041636635 0.99684054 0
0.020098403 -0.00063242042 0.20094839 4294901760 -0.063914903 -0.036503438 0.99728751 0
0.0001453049 0.00027441722 0.20001192 4294901760 -0.053770576 -0.013502757 0.99846202 0
-0.019780515 0.0011996836 0.19868267 4294901760 -0.060638662 -0.040605266 0.99733353 0
-0.03978388 0.0021181763 0.19752541 4294901760 -0.066706538 -0.043494593 0.9968242 0
-0.059986755 0.00303692 0.1963605 4294901760 -0.054007534 -0.04166656 0.99767083 0
-0.079770625 0.0039358758 0.19511427 4294901760 -0.065676361 -0.034954138 0.99722856 0
0.079441421 -0.019604599 0.20387436 4294901760 -0.052310549 -0.040955339 0.99779069 0
0.059649635 -0.018643761 0.20246245 4294901760 -0.062967464 -0.051850475 0.99666774 0
0.039435361 -0.01771847 0.20150657 4294901760 -0.053502783 -0.037403893 0.99786693 0
0.019424044 -0.016776245 0.20019802 4294901760 -0.060522024 -0.051991966 0.99681187 0
-0.00054761081 -0.015855411 0.19930029 4294901760 -0.064476088 -0.065099731 0.99579358 0
-0.020492179 -0.014944027 0.19795965 4294901760 -0.045645341 -0.030928781 0.99847877 0
-0.040508382 -0.014045643 0.19686408 4294901760 -0.061515406 -0.032750979 0.99756867 0
-0.060704406 -0.013147757 0.19569571 4294901760 -0.056265093 -0.033565197 0.99785149 0
-0.080497921 -0.012340093 0.19461966 4294901760 -0.059883606 -0.040532123 0.9973821 0
0.078850701 -0.035869129 0.20307851 4294901760 -0.05249304 -0.045912165 0.99756533 0
0.058966376 -0.034858022 0.2018595 4294901760 -0.062643155 -0.027289417 0.99766284 0
0.038760971 -0.033915564 0.20076257 4294901760 -0.056207407 -0.049216643 0.99720532 0
0.018751601 -0.032973055 0.19945917 4294901760 -0.068486705 -0.028920721 0.99723274 0
-0.0012333582 -0.032040086 0.19843653 4294901760 -0.04399864 -0.039656017 0.99824423 0
-0.021226667 -0.03115019 0.1974522 4294901760 -0.060274526 -0.042011119 0.99729735 0
-0.04124051 -0.030243577 0.19623092 4294901760 -0.036303718 -0.030823734 0.99886531 0
-0.061405808 -0.029352674 0.19526862 4294901760 -0.076040953 -0.032530408 0.99657393 0
-0.081182733 -0.028543584 0.19378276 4294901760 -0.071701482 -0.038662542 0.9966765 0
0.078139834 -0.052196242 0.2024667 4294901760 -0.058451213 -0.030788224 0.99781537 0
0.058277354 -0.051206518 0.2013249 4294901760 -0.062763438 -0.037494242 0.99732387 0
0.038071707 -0.05022762 0.20007415 4294901760 -0.061243594 -0.027663013 0.99773943 0
0.018055724 -0.049282301 0.19894849 4294901760 -0.053342152 -0.036647622 0.99790359 0
-0.001949545 -0.048383094 0.19798854 4294901760 -0.05210501 -0.020889308 0.9984231 0
-0.02195745 -0.047488786 0.19681403 4294901760 -0.063522689 -0.024474306 0.99768025 0
-0.041982446 -0.046577919 0.19559094 4294901760 -0.048608776 -0.044704519 0.99781698 0
-0.062116224 -0.045631178 0.19431303 4294901760 -0.080093011 -0.05283951 0.99538589 0
-0.081952393 -0.044764075 0.1931573 4294901760 -0.055572271 -0.039466728 0.99767435 0
0.057543244 -0.067207843 0.20054844 4294901760 -0.062163547 -0.04266781 0.99715352 0
0.037471745 -0.066285186 0.1995983 4294901760 -0.050458804 -0.033882692 0.99815124 0
0.017441861 -0.065314017 0.19827881 4294901760 -0.070054099 -0.031785704 0.99703664 0
-0.0026451426 -0.064396195 0.19728936 4294901760 -0.042542726 -0.050983567 0.99779296 0
-0.022750609 -0.06355118 0.19620688 4294901760 -0.070047587 -0.052116703 0.99618131 0
-0.042828072 -0.062758967 0.19489394 4294901760 -0.033772778 -0.045330402 0.99840099 0
-0.062963836 -0.061752431 0.19389822 4294901760 -0.081283078 -0.027530801 0.99631077 0
0.016950248 -0.083787717 0.1976095 4294901760 -0.087909319 -0.0089663882 0.99608815 0
-0.0034166493 -0.082231835 0.19680819 4294901760 -0.034349304 0.01906601 0.999228 0
-0.023846401 -0.081837319 0.1952983 4294901760 -0.083566777 -0.027029734 0.99613553 0
