# .PCD v0.7 - Point Cloud Data file format
VERSION 0.7
FIELDS x y z rgb
SIZE 4 4 4 4
TYPE F F F F
COUNT 1 1 1 1
WIDTH 971
HEIGHT 1
VIEWPOINT 0 0 0 1 0 0 0
POINTS 971
DATA ascii
-0.01179595 0.024727508 0.294 1.687216e-38
-0.06160631 0.027278736 0.29349172 1.1701257e-38
-0.057420045 0.027476547 0.29158512 1.2162957e-38
-0.05380591 0.028584864 0.29035479 1.2532464e-38
-0.02035303 0.025799422 0.294 1.6688488e-38
-0.017242825 0.027048804 0.29364377 1.687216e-38
-0.012685472 0.027456917 0.29366678 1.6964355e-38
-0.0096566807 0.027991969 0.294 1.7056193e-38
-0.060545377 0.030834159 0.294 1.1885651e-38
-0.057559207 0.03250711 0.29292125 1.2071123e-38
-0.052741703 0.032656126 0.29077196 1.2716856e-38
-0.049378622 0.034003161 0.28999999 1.3177483e-38
-0.030732548 0.034699127 0.29100001 1.5764728e-38
-0.02720348 0.034538381 0.29099995 1.6317899e-38
-0.023768773 0.034301978 0.29099995 1.6687403e-38
-0.017753437 0.034527864 0.29124999 1.6964355e-38
-0.05663576 0.037281562 0.29361108 1.2347348e-38
-0.052584432 0.037381839 0.2916452 1.2808692e-38
-0.048630431 0.037913293 0.29024529 1.3270393e-38
-0.036474157 0.039034709 0.28999999 1.4840247e-38
-0.032599714 0.037388075 0.29039168 1.5394861e-38
-0.027647702 0.03742085 0.29094201 1.6225706e-38
-0.022601863 0.037407357 0.29095352 1.6687409e-38
-0.017364839 0.037549719 0.29221305 1.7056189e-38
-0.014518657 0.037493013 0.294 1.705619e-38
-0.055776007 0.040764432 0.294 1.2255157e-38
-0.052381199 0.042365119 0.29311821 1.2808695e-38
-0.047400098 0.042578667 0.2910406 1.3454787e-38
-0.042377852 0.043107081 0.29018441 1.4101238e-38
-0.037461326 0.042650063 0.29094571 1.474769e-38
-0.032416869 0.0425063 0.29100025 1.5487055e-38
-0.027551593 0.042475019 0.29094419 1.6317542e-38
-0.0226158 0.042539939 0.29185116 1.6779245e-38
-0.017948398 0.042474288 0.29329541 1.6963993e-38
-0.051577292 0.047073446 0.29377353 1.2992726e-38
-0.047509987 0.047559097 0.2921918 1.3454786e-38
-0.042397559 0.047526468 0.29052415 1.4101238e-38
-0.037510656 0.047576379 0.2905176 1.4931e-38
-0.032551296 0.047571234 0.29078534 1.5578534e-38
-0.027430931 0.047598608 0.29172724 1.6317543e-38
-0.022387575 0.047642235 0.29199985 1.6687408e-38
-0.01791727 0.047480553 0.29310742 1.6871797e-38
-0.050219458 0.050787512 0.294 1.3177477e-38
-0.04722907 0.052238017 0.29316899 1.3271835e-38
-0.042614501 0.052455258 0.29132995 1.4193077e-38
-0.037479479 0.052709866 0.29054323 1.4931363e-38
-0.032494787 0.052374385 0.2913565 1.5578535e-38
-0.027466817 0.052498296 0.29209071 1.631754e-38
-0.022413943 0.05254598 0.29234985 1.6779245e-38
-0.018506287 0.052044526 0.29367921 1.6963636e-38
-0.04572371 0.055564925 0.29399997 1.373245e-38
-0.042083777 0.057295516 0.29279765 1.4285625e-38
-0.037348155 0.057561755 0.29212087 1.5023918e-38
-0.032697722 0.057333544 0.29274446 1.5578535e-38
-0.027435184 0.057025582 0.29308122 1.6409376e-38
-0.022902187 0.056657918 0.29360002 1.687072e-38
-0.019672353 0.055423193 0.294 1.6963637e-38
-0.041252129 0.062092375 0.29371738 1.4378188e-38
-0.037564177 0.062506497 0.29362029 1.4932081e-38
-0.032705747 0.062839553 0.29385263 1.5578895e-38
-0.029312959 0.06289874 0.294 1.5857283e-38
-0.036519103 0.065691628 0.294 1.5025001e-38
-0.033212114 0.065819725 0.29400003 1.5578176e-38
-0.032656528 0.079273254 0.29399997 1.5670735e-38
-0.035854157 0.083522201 0.294 1.4933884e-38
-0.032507982 0.082562082 0.29400021 1.5395227e-38
-0.02908249 0.083381511 0.29400003 1.5948764e-38
-0.04116755 0.088033594 0.29399997 1.382826e-38
-0.037573352 0.087479137 0.29400021 1.4381435e-38
-0.032507978 0.087434396 0.29400021 1.5119006e-38
-0.027612837 0.087661438 0.29400015 1.5673623e-38
-0.024512719 0.088760756 0.294 1.5767622e-38
-0.041658215 0.091673337 0.29399988 1.2258771e-38
-0.037579693 0.091750428 0.29353014 1.2259494e-38
-0.032421634 0.09193588 0.2939257 1.3181094e-38
-0.027509855 0.091712311 0.29400006 1.4381081e-38
-0.024485709 0.091575883 0.29399997 1.4382165e-38
0.00071797101 -0.045164887 0.29500002 1.512261e-38
-0.080684118 -0.041121472 0.29900002 1.1516496e-38
-0.079426661 -0.040811721 0.29857144 1.1608691e-38
0.0026001071 -0.042265184 0.29678175 1.5953089e-38
0.0050130817 -0.041647967 0.29900002 1.6321512e-38
-0.081145614 -0.037265539 0.29875672 1.1515415e-38
-0.077857368 -0.036982063 0.29659331 1.1699451e-38
0.0041457973 -0.037662107 0.29883328 1.6873602e-38
0.0050130817 -0.038427085 0.29900002 1.6873245e-38
-0.081433922 -0.032484084 0.29861221 1.1422864e-38
-0.077606812 -0.032722514 0.29605487 1.1423583e-38
0.0028669082 -0.032249667 0.29701555 1.6965436e-38
0.0050130817 -0.031879153 0.29900002 1.6965435e-38
-0.081636444 -0.027418235 0.29841471 1.123919e-38
-0.078214452 -0.027531279 0.29587144 1.1423223e-38
0.0031371124 -0.027469981 0.29640523 1.7057272e-38
0.0060263788 -0.027108058 0.29865623 1.7149107e-38
-0.081536792 -0.022534234 0.29852003 1.1238114e-38
-0.077711925 -0.022528874 0.29571998 1.1331027e-38
0.003354704 -0.023492053 0.29655105 1.7057626e-38
0.0064057354 -0.02323233 0.29868564 1.7057272e-38
-0.081411667 -0.017552754 0.29853058 1.1238108e-38
-0.077535324 -0.017317289 0.2955538 1.1330667e-38
-0.081211247 -0.012934316 0.29848781 1.1054076e-38
-0.077833839 -0.012542954 0.29625714 1.1330309e-38
-0.080953121 -0.007775371 0.29880765 1.096152e-38
-0.077347837 -0.0076336968 0.29626673 1.1329944e-38
-0.07457377 -0.006379588 0.29500002 1.1422854e-38
-0.080331817 -0.0028983508 0.29900005 1.096116e-38
-0.077360123 -0.0025484648 0.29697806 1.1146271e-38
-0.074020207 -0.0019945477 0.29509097 1.1329952e-38
-0.080035135 0.00071894011 0.29900002 1.0961523e-38
-0.077377863 0.0026428867 0.29797348 1.09626e-38
-0.07339751 0.0026971067 0.2954753 1.1146637e-38
-0.0006665265 0.0043908334 0.296 1.7240583e-38
0.0010551371 0.0044205007 0.29800001 1.7148383e-38
-0.076728784 0.007353358 0.29842374 1.0870403e-38
-0.072867244 0.0077514835 0.29592648 1.1238468e-38
-0.00049336441 0.0076401564 0.29700002 1.6965073e-38
0.00091549061 0.007043846 0.29851431 1.6965071e-38
-0.075671181 0.012089373 0.29895002 1.1053358e-38
-0.072433017 0.012445285 0.29673427 1.1146273e-38
-0.069573291 0.013664915 0.29500005 1.1147715e-38
-0.071925282 0.017302619 0.29740679 1.123811e-38
-0.068786301 0.017712776 0.29533333 1.1238834e-38
-0.0055170208 0.019565606 0.29800001 1.7148743e-38
-0.0030148015 0.019229293 0.29837501 1.7056549e-38
-0.071216643 0.022103 0.29838461 1.1330308e-38
-0.067652136 0.022222202 0.29606152 1.1423223e-38
-0.064816743 0.024176057 0.29500002 1.1607617e-38
-0.010502611 0.024746427 0.29500002 1.7056192e-38
-0.0068296022 0.023104448 0.29666668 1.7148382e-38
-0.003095984 0.022397371 0.29830387 1.7056549e-38
-0.070393041 0.026981466 0.29900002 1.1422141e-38
-0.06736204 0.027660385 0.29716459 1.1423585e-38
-0.063949488 0.027981082 0.29503453 1.1700532e-38
-0.020733504 0.027368365 0.29515389 1.6779965e-38
-0.019283937 0.028168662 0.29500005 1.6963996e-38
-0.010316764 0.02616654 0.29500005 1.6964353e-38
-0.0073398505 0.027226854 0.29623532 1.7148027e-38
-0.003771204 0.027026612 0.29849997 1.7148386e-38
-0.067274764 0.032136228 0.29822975 1.151542e-38
-0.062706999 0.032684315 0.29592302 1.1700898e-38
-0.059938226 0.034687199 0.29500002 1.1886006e-38
-0.011951643 0.033293836 0.29571915 1.6781044e-38
-0.0074618673 0.033261638 0.29760653 1.7056552e-38
-0.0045615854 0.031103285 0.29900002 1.7148742e-38
-0.065975092 0.03662255 0.29899997 1.1699818e-38
-0.06249842 0.037519936 0.29706749 1.1793095e-38
-0.058940552 0.037830859 0.29517651 1.2162238e-38
-0.01216299 0.037520654 0.29575548 1.7056552e-38
-0.0077969693 0.037363473 0.29798892 1.7056553e-38
-0.062169161 0.042329162 0.29804233 1.197677e-38
-0.057690728 0.042689707 0.29576465 1.2346275e-38
-0.054571856 0.044465005 0.29500002 1.2716139e-38
-0.015458898 0.042998333 0.29500005 1.705619e-38
-0.012460872 0.042485859 0.2958172 1.7148026e-38
-0.0086852154 0.042508792 0.29811114 1.7148387e-38
-0.06138904 0.046802904 0.29874414 1.2069684e-38
-0.057374205 0.047453005 0.29686055 1.2530304e-38
-0.053711403 0.04811113 0.29517147 1.2716136e-38
-0.015334664 0.047747549 0.29500005 1.6964353e-38
-0.01236483 0.047398064 0.2957834 1.6963994e-38
-0.008872468 0.047307625 0.29813638 1.7148386e-38
-0.060338888 0.05084898 0.29900002 1.1978207e-38
-0.05738515 0.052465972 0.2981396 1.2438828e-38
-0.05262427 0.052542336 0.29595396 1.2900173e-38
-0.049353853 0.053948566 0.29509094 1.3086006e-38
-0.01630839 0.052991658 0.29553059 1.6963994e-38
-0.012658947 0.05240532 0.29760006 1.705583e-38
-0.0095336651 0.050777651 0.29885715 1.6963996e-38
-0.056289088 0.057319656 0.29877079 1.2531749e-38
-0.052459732 0.057541631 0.29729691 1.2900893e-38
-0.047647048 0.057564434 0.29577911 1.354734e-38
-0.044605751 0.058992036 0.29500005 1.3641695e-38
-0.021805564 0.05888753 0.29528207 1.6779246e-38
-0.017331496 0.05741499 0.2963053 1.705583e-38
-0.013354084 0.057387929 0.29856253 1.7056193e-38
-0.055523727 0.061066113 0.29900002 1.2623946e-38
-0.052406006 0.062466357 0.29853684 1.2993448e-38
-0.047604691 0.062539317 0.29701069 1.3547344e-38
-0.043657172 0.062923416 0.29517859 1.3917567e-38
-0.027083306 0.063851386 0.29500005 1.6225708e-38
-0.02243375 0.062596664 0.29610997 1.6778882e-38
-0.017521519 0.062342796 0.29790333 1.7055831e-38
-0.014666679 0.061023641 0.29900002 1.7055834e-38
-0.051827744 0.067399196 0.29861969 1.3085646e-38
-0.047461797 0.067583628 0.2970002 1.363954e-38
-0.042649504 0.06756521 0.29581299 1.4194153e-38
-0.037646275 0.067977756 0.29500005 1.4932086e-38
-0.032150201 0.068244673 0.29500005 1.5762925e-38
-0.027553964 0.067556433 0.29537359 1.631718e-38
-0.022455705 0.067540579 0.29641277 1.668741e-38
-0.018422676 0.067351803 0.29852545 1.7056194e-38
-0.051218964 0.072141349 0.29890236 1.3270396e-38
-0.047443449 0.072501145 0.29770434 1.3639899e-38
-0.042302739 0.0723776 0.29618981 1.4469662e-38
-0.037297901 0.072505526 0.29549986 1.5024638e-38
-0.032374609 0.072576202 0.29500005 1.5854404e-38
-0.027588993 0.072360322 0.29570565 1.6409019e-38
-0.022475658 0.07242281 0.29637271 1.6871083e-38
-0.018258115 0.072512619 0.29844779 1.7240227e-38
-0.051127862 0.077772193 0.29899988 1.3454787e-38
-0.047501471 0.077531114 0.29771724 1.3640257e-38
-0.042267404 0.077458918 0.29635224 1.4285993e-38
-0.037426583 0.077422976 0.29557675 1.4932448e-38
-0.032295413 0.076928601 0.29500005 1.576293e-38
-0.027509054 0.077465065 0.29567268 1.640902e-38
-0.022524737 0.077506743 0.2970275 1.7055834e-38
-0.018287603 0.077317037 0.29854542 1.724059e-38
-0.05182001 0.082750119 0.29859206 1.3271122e-38
-0.047419678 0.082537062 0.29725027 1.3641342e-38
-0.042568501 0.082505234 0.29600936 1.4194879e-38
-0.037917778 0.082292013 0.29512197 1.4748417e-38
-0.027152512 0.082261853 0.29533726 1.631791e-38
-0.0225925 0.082550198 0.29713175 1.7148396e-38
-0.018313125 0.082709327 0.29878253 1.7425703e-38
-0.055986091 0.087832741 0.29899991 1.2810501e-38
-0.052497819 0.087432474 0.29769918 1.2995974e-38
-0.047537725 0.087590888 0.29575226 1.3457674e-38
-0.043294758 0.087078504 0.29506853 1.3919015e-38
-0.03896061 0.085165121 0.29500005 1.4197047e-38
-0.026046898 0.085761867 0.29500005 1.604277e-38
-0.022280222 0.087372258 0.29609728 1.6597024e-38
-0.017417645 0.087463818 0.29800949 1.6966169e-38
-0.014518341 0.087930344 0.29900002 1.6598104e-38
-0.056203339 0.091230199 0.29888454 1.1151692e-38
-0.052357432 0.091209315 0.29693332 1.1705231e-38
-0.047493991 0.091310836 0.2952553 1.2626827e-38
-0.043981407 0.092029952 0.29500005 1.1428292e-38
-0.021866249 0.092068426 0.29575321 1.3460568e-38
-0.017437913 0.091836698 0.29742876 1.4106296e-38
-0.01451834 0.091894485 0.29900002 1.3921539e-38
0.0088674249 -0.045367252 0.30400002 1.5214805e-38
-0.085866116 -0.042456198 0.303 1.1882759e-38
-0.083278455 -0.041939251 0.301 1.1423943e-38
0.0045337272 -0.044273138 0.30000001 1.5675065e-38
0.0074165673 -0.042607732 0.3022567 1.5952731e-38
0.010124262 -0.040329196 0.30400002 1.6230392e-38
0.13375272 -0.041603532 0.30399993 1.4567272e-38
0.13744286 -0.041705538 0.30330676 1.5027895e-38
0.142745 -0.041390713 0.30362502 1.5858015e-38
0.14756426 -0.04172435 0.30400008 1.6319355e-38
0.15057586 -0.041147877 0.30400002 1.6229319e-38
-0.085340478 -0.037234295 0.3015455 1.142286e-38
-0.083600476 -0.037562724 0.30055559 1.1423224e-38
0.0075053764 -0.037374698 0.3020111 1.6873604e-38
0.010517655 -0.036790252 0.3038947 1.6873602e-38
0.13350251 -0.037720595 0.30392769 1.5303398e-38
0.13753745 -0.037484124 0.30343443 1.5856932e-38
0.14266023 -0.037487209 0.30393782 1.6503026e-38
0.14762226 -0.037558272 0.30400035 1.7148756e-38
0.15148328 -0.037225753 0.30399993 1.7609375e-38
-0.08641731 -0.0318514 0.30225 1.1330302e-38
-0.083850913 -0.032856148 0.30033341 1.1514335e-38
0.0074379724 -0.032553628 0.30094439 1.6965795e-38
0.011003623 -0.032391243 0.30357781 1.6965795e-38
0.13444346 -0.034355499 0.30400005 1.5579981e-38
0.13756759 -0.034031618 0.30399993 1.6132799e-38
0.14298038 -0.033410251 0.30400002 1.677925e-38
0.14749511 -0.032837298 0.30400026 1.7517177e-38
0.15122521 -0.0338277 0.30399996 1.7703013e-38
-0.087511837 -0.027682878 0.30301547 1.1421776e-38
-0.083866157 -0.027320223 0.30023816 1.1146996e-38
0.0079004569 -0.028286168 0.30060425 1.7057631e-38
0.010850491 -0.02751711 0.30374357 1.7057991e-38
0.14636545 -0.025718832 0.30400002 1.7517175e-38
-0.086992972 -0.022258159 0.30258068 1.1237392e-38
-0.083886795 -0.022506315 0.30019239 1.1421785e-38
0.0076255505 -0.021983722 0.30026093 1.7149468e-38
0.010626998 -0.024711221 0.30400002 1.7058352e-38
0.14650908 -0.024495304 0.30400005 1.761009e-38
-0.08730112 -0.017419912 0.30317244 1.1237031e-38
-0.084301576 -0.017286722 0.30092314 1.1237752e-38
-0.087143034 -0.013010896 0.30314893 1.0961161e-38
-0.083769269 -0.01202512 0.30066669 1.1053717e-38
-0.086903602 -0.0078337323 0.30400002 1.1144116e-38
-0.082948029 -0.0076886131 0.30046436 1.0961161e-38
0.14408378 -0.0074655665 0.30399993 1.7239504e-38
0.14640565 -0.0063928496 0.30399993 1.7516451e-38
-0.085733302 -0.0011981552 0.30353329 1.0868968e-38
-0.082715094 -0.0021487644 0.30105174 1.0869323e-38
0.14711955 -0.0045589963 0.30400002 1.7700481e-38
-0.085669614 0.0029980876 0.30399999 1.0776404e-38
-0.082600065 0.0028322067 0.30172604 1.0960798e-38
-0.079806685 0.0039529921 0.30000001 1.1052994e-38
0.0035482093 0.0044572023 0.30046669 1.7057268e-38
0.0064093601 0.0044981134 0.30327272 1.7057268e-38
-0.085395396 0.0050133104 0.30400002 1.0776766e-38
-0.082352787 0.0074388748 0.30234334 1.0960441e-38
-0.078971528 0.0081829196 0.30012506 1.0961156e-38
0.0032507547 0.0078546293 0.3009322 1.6965071e-38
0.0064755185 0.0073051453 0.30342373 1.6965431e-38
-0.081539415 0.012651122 0.30329731 1.0868245e-38
-0.07803335 0.012691247 0.30087501 1.077749e-38
0.0040570502 0.011765989 0.30295652 1.7056547e-38
0.0055732722 0.011619367 0.30373907 1.7056549e-38
-0.080721281 0.016417185 0.30388233 1.0685295e-38
-0.077780955 0.017562913 0.3023051 1.0777492e-38
0.0036760441 0.018115617 0.30344442 1.6964715e-38
0.0050969119 0.016852742 0.30400002 1.7056905e-38
-0.077476472 0.022327727 0.30319706 1.0869327e-38
-0.073621407 0.023836849 0.30085722 1.0962609e-38
-0.00079974171 0.023601713 0.300125 1.7056546e-38
0.001560193 0.02240691 0.30199999 1.7056549e-38
-0.076477207 0.027322846 0.3034822 1.1052999e-38
-0.072773449 0.027705928 0.3011333 1.123811e-38
-0.0015949173 0.027895337 0.30071738 1.7240577e-38
0.00092832732 0.027605075 0.30329034 1.6965073e-38
-0.075862095 0.031873051 0.30378565 1.0869687e-38
-0.072463937 0.03240769 0.30156761 1.1329584e-38
-0.069352731 0.033996664 0.29999998 1.1331028e-38
-0.0025503666 0.032622077 0.30136713 1.7056549e-38
0.00043262276 0.031647898 0.30388883 1.7056547e-38
-0.075340696 0.035241649 0.30400002 1.1237018e-38
-0.072219186 0.037363373 0.30278265 1.1238114e-38
-0.068014517 0.037839718 0.30068338 1.1423232e-38
-0.005756171 0.038983878 0.30036363 1.705655e-38
-0.0031636965 0.037268776 0.30207047 1.7148383e-38
-0.071271248 0.042015504 0.3037954 1.1329954e-38
-0.067563497 0.042538766 0.30177635 1.1515425e-38
-0.064579621 0.043727122 0.29999998 1.1884213e-38
-0.0063071307 0.042694438 0.30084088 1.7148387e-38
-0.0038909409 0.042189524 0.30324006 1.7148747e-38
-0.070506699 0.046790421 0.30399996 1.1422508e-38
-0.067543283 0.047518741 0.3024126 1.1699096e-38
-0.06351053 0.047983136 0.30035561 1.1884572e-38
-0.0062041767 0.046916824 0.30141178 1.7148389e-38
-0.0042889998 0.047263991 0.3034572 1.7148389e-38
-0.066673197 0.052183669 0.30332151 1.1700178e-38
-0.062663972 0.052505948 0.30114669 1.1793455e-38
-0.059820134 0.053883731 0.29999998 1.2162238e-38
-0.010491625 0.053883724 0.29999998 1.6964711e-38
-0.0075024627 0.052986484 0.30223531 1.705655e-38
-0.0047064209 0.050607722 0.30400002 1.6965075e-38
-0.065621153 0.056065612 0.30400002 1.1884569e-38
-0.062555462 0.057538468 0.30264717 1.1977847e-38
-0.058725126 0.057966903 0.30032435 1.2254801e-38
-0.011000154 0.057768378 0.30029038 1.6964357e-38
-0.0078889439 0.057413053 0.30242053 1.7148383e-38
-0.062372085 0.062379856 0.30303711 1.1978928e-38
-0.057677034 0.062627546 0.30051887 1.2439552e-38
-0.054504562 0.064608537 0.30000001 1.2807623e-38
-0.015559137 0.064359948 0.30000001 1.7240223e-38
-0.01247899 0.062607832 0.30109185 1.7148389e-38
-0.0082179662 0.062343881 0.30342871 1.705655e-38
-0.061684866 0.067450881 0.3034668 1.2255157e-38
-0.057280693 0.067349792 0.30118895 1.2715782e-38
-0.054271098 0.067825563 0.30000001 1.2809056e-38
-0.016138522 0.067764945 0.30025649 1.7240225e-38
-0.012667397 0.06742198 0.30212775 1.7148749e-38
-0.0092288451 0.0669166 0.30393326 1.7240946e-38
-0.061434936 0.072364129 0.30367753 1.2530667e-38
-0.057313532 0.072448961 0.30171105 1.2624666e-38
-0.053512331 0.072703861 0.30000013 1.3085646e-38
-0.01595444 0.0722811 0.30058828 1.7332061e-38
-0.012901779 0.072417863 0.30265945 1.7240587e-38
-0.0099851387 0.070004232 0.30400002 1.7332784e-38
-0.061874341 0.077615172 0.3036235 1.2714701e-38
-0.057258997 0.077403925 0.30142865 1.2900533e-38
-0.05340207 0.077176049 0.30000013 1.3177483e-38
-0.015912868 0.077522807 0.3003031 1.7149113e-38
-0.012696275 0.077409975 0.30282015 1.7149112e-38
-0.0098175611 0.078400992 0.30400002 1.7057633e-38
-0.065522581 0.082717918 0.30399996 1.2163325e-38
-0.062597685 0.082397841 0.30340016 1.2439915e-38
-0.057432823 0.082626484 0.30109173 1.2809419e-38
-0.054116301 0.081815183 0.30000007 1.2994532e-38
-0.015995353 0.082181968 0.30010533 1.724131e-38
-0.012701041 0.08252205 0.30213511 1.7149472e-38
-0.009288203 0.082514681 0.3039743 1.7240949e-38
-0.065568782 0.087668918 0.30399996 1.216333e-38
-0.06247779 0.087431371 0.30260646 1.2440632e-38
-0.058321729 0.087424971 0.30033904 1.2625747e-38
-0.012231301 0.087429859 0.30092219 1.6689218e-38
-0.0089612268 0.087712608 0.30341181 1.6596661e-38
-0.066419773 0.092077836 0.30392852 8.9353993e-39
-0.062569715 0.09162721 0.30231673 1.013466e-38
-0.058653876 0.091479786 0.30022734 1.1058778e-38
-0.012016555 0.091977395 0.30063933 1.3736068e-38
-0.0082709435 0.092032962 0.30288064 1.1798881e-38
0.0096531771 -0.045263752 0.30500001 1.5215526e-38
0.0107585 -0.045228701 0.30533338 1.5214085e-38
-0.092160769 -0.042034421 0.30791995 1.1607254e-38
-0.089499503 -0.040848076 0.30600002 1.1606891e-38
0.0096531771 -0.042736441 0.30500004 1.595345e-38
0.012207503 -0.042287938 0.30682895 1.595345e-38
0.12288187 -0.041182719 0.30846336 1.3827182e-38
0.12756906 -0.041837286 0.30685171 1.4103771e-38
0.13116494 -0.041943233 0.30515563 1.4381082e-38
0.15327495 -0.041719642 0.3050001 1.6963646e-38
0.15724805 -0.041484915 0.30569768 1.7239871e-38
0.16115502 -0.040509138 0.30700001 1.7516459e-38
-0.092848852 -0.0378315 0.30788675 1.1606172e-38
0.012925174 -0.037715908 0.30658332 1.6781407e-38
0.11829186 -0.037416842 0.30900002 1.3734621e-38
0.12247834 -0.037593216 0.30841821 1.4195243e-38
0.12744619 -0.037405703 0.30694267 1.4748417e-38
0.1310132 -0.037478521 0.30526325 1.4934252e-38
0.15404707 -0.038098816 0.30500007 1.7701572e-38
0.15760307 -0.037499946 0.30533725 1.7701931e-38
0.16223297 -0.037153259 0.30705774 1.7701571e-38
-0.092023693 -0.032212939 0.3067027 1.1422142e-38
-0.089711405 -0.032121718 0.30500001 1.1513975e-38
0.013439945 -0.032806143 0.30610812 1.6965797e-38
0.015350976 -0.033458542 0.30800003 1.7057633e-38
0.11798923 -0.033681951 0.30900002 1.4102682e-38
0.12256163 -0.032503139 0.30862731 1.4379634e-38
0.12759775 -0.032451402 0.30765051 1.4840973e-38
0.13234818 -0.032443106 0.30627415 1.5486345e-38
0.13729343 -0.031650223 0.30552232 1.6040603e-38
0.14201656 -0.031343654 0.30513048 1.6778528e-38
0.1476035 -0.030436838 0.30500004 1.7609011e-38
0.15316245 -0.032234348 0.3053284 1.8069996e-38
0.15758754 -0.032575101 0.30562365 1.8162186e-38
0.16227895 -0.032219592 0.30667266 1.8069993e-38
-0.095486991 -0.027166022 0.30900002 1.1330301e-38
-0.09248288 -0.02754329 0.30672979 1.1513259e-38
0.01374555 -0.027975028 0.307125 1.7057992e-38
0.015400816 -0.02793416 0.30900002 1.7058352e-38
0.1139867 -0.026881529 0.30900002 1.3918651e-38
0.11710857 -0.02725639 0.30900002 1.4103043e-38
0.12247192 -0.027442023 0.3089703 1.437999e-38
0.12743419 -0.027364576 0.30811223 1.5025001e-38
0.13245736 -0.027444012 0.30690598 1.5486702e-38
0.13746007 -0.027734702 0.30599988 1.622427e-38
0.1425278 -0.027595727 0.30523819 1.696292e-38
0.14766927 -0.027726401 0.30500022 1.7701209e-38
0.15281071 -0.027703328 0.3058292 1.8347304e-38
0.15767111 -0.02765792 0.30593985 1.8438417e-38
0.16206689 -0.027555527 0.30649996 1.8254382e-38
-0.095579907 -0.022510644 0.30900002 1.1053353e-38
-0.093014695 -0.022442346 0.30731374 1.1145194e-38
0.013646451 -0.02466788 0.30766669 1.7241665e-38
0.11414246 -0.023620773 0.30900002 1.4010485e-38
0.11731455 -0.022928985 0.30900002 1.419488e-38
0.1224561 -0.022557188 0.30900002 1.4288871e-38
0.12756562 -0.022554265 0.30827731 1.5024998e-38
0.13242732 -0.022638826 0.30665427 1.5670372e-38
0.13738757 -0.022667611 0.30615944 1.622463e-38
0.14265805 -0.022669984 0.3065753 1.6871084e-38
0.14757095 -0.022361884 0.30570841 1.7701571e-38
0.15252173 -0.022511747 0.30615467 1.8623533e-38
0.15772009 -0.022476096 0.30624732 1.8438777e-38
0.16239429 -0.022543022 0.30647981 1.8070709e-38
-0.095486991 -0.018716509 0.30900002 1.1237021e-38
-0.092739999 -0.017462375 0.3069697 1.1052995e-38
-0.089711413 -0.017463297 0.30500004 1.0961521e-38
0.10948937 -0.015835989 0.30900002 1.3826815e-38
0.11301598 -0.016492948 0.30900002 1.373534e-38
0.11728884 -0.017176412 0.30900002 1.3920091e-38
0.12256715 -0.017641133 0.30875927 1.4472546e-38
0.12763971 -0.01768011 0.30807862 1.5025363e-38
0.13253786 -0.017616753 0.30701825 1.5578894e-38
0.13729501 -0.017494261 0.30631503 1.622463e-38
0.14257696 -0.017559508 0.30736068 1.696256e-38
0.14757082 -0.017529646 0.30645669 1.7701208e-38
0.15227325 -0.017553966 0.30540481 1.8715365e-38
0.15791731 -0.01754315 0.30610856 1.834658e-38
0.16245736 -0.017618135 0.30650634 1.8254021e-38
-0.095486991 -0.01410768 0.30900002 1.1328503e-38
-0.091719545 -0.012328088 0.30643854 1.0869323e-38
-0.089362212 -0.012078173 0.30500004 1.0869324e-38
0.10948938 -0.014427738 0.30900002 1.373498e-38
0.11269593 -0.014568561 0.30900002 1.3734982e-38
0.11668906 -0.014510037 0.30900002 1.4011206e-38
0.12297371 -0.012889697 0.30882952 1.456438e-38
0.12761271 -0.012481441 0.3080779 1.5300868e-38
0.13252574 -0.012586314 0.30774739 1.5762209e-38
0.13737513 -0.012508496 0.3075656 1.622427e-38
0.14253807 -0.012480909 0.30699039 1.6870721e-38
0.14755599 -0.012635428 0.30638522 1.7609009e-38
0.15254715 -0.012386249 0.30612624 1.834694e-38
0.15773988 -0.012445065 0.30677056 1.8162906e-38
0.16240308 -0.012526477 0.30718973 1.807035e-38
0.16509986 -0.011509851 0.30800006 1.7977793e-38
-0.092181206 -0.0075894627 0.30769861 1.0960798e-38
-0.088939369 -0.0074108546 0.30566666 1.0960444e-38
0.12357048 -0.0072430805 0.30888572 1.4564377e-38
0.12761565 -0.0074670082 0.30801979 1.5209029e-38
0.13259692 -0.0073596709 0.30785426 1.5762566e-38
0.1373568 -0.0074296091 0.30724472 1.6040595e-38
0.14166661 -0.0074459007 0.30643854 1.6778166e-38
0.14808807 -0.0077722883 0.30518344 1.7701204e-38
0.15276212 -0.0074550933 0.30573463 1.8254021e-38
0.15753464 -0.0073446869 0.3054896 1.8070349e-38
0.16269656 -0.0074436157 0.30734777 1.8069629e-38
0.16509986 -0.0094681121 0.30800003 1.8254017e-38
-0.091372274 -0.0023523702 0.3079375 1.0960438e-38
-0.089245744 -0.002838966 0.30646154 1.0960079e-38
0.12339991 -0.0024013442 0.3089844 1.4472542e-38
0.12758268 -0.0023612359 0.30860004 1.4842047e-38
0.13256608 -0.002321922 0.30815318 1.5487057e-38
0.13731273 -0.0023183052 0.30742559 1.6132789e-38
0.14244278 -0.0021538327 0.30755314 1.687e-38
0.14747028 -0.002179662 0.30611312 1.7516451e-38
0.15268548 -0.0022510514 0.30631089 1.8161103e-38
0.15766405 -0.0022973442 0.30666643 1.8069626e-38
0.16215242 -0.0023382856 0.30747539 1.8069626e-38
-0.091103159 0.00084995927 0.30800006 1.0868598e-38
-0.08843299 0.0026545348 0.30619448 1.0776406e-38
0.0088137146 0.0040266165 0.30560002 1.6965431e-38
0.011255202 0.0045599397 0.30740005 1.7057625e-38
0.12414241 0.0006917757 0.30900002 1.511503e-38
0.12787598 0.001500227 0.30900002 1.5300862e-38
0.1324145 0.0016874985 0.3088364 1.5670366e-38
0.13782123 0.0012764495 0.30833331 1.6316103e-38
0.14273201 0.001579283 0.30873072 1.6777803e-38
0.14760917 0.0021162184 0.30811393 1.7423538e-38
0.15278907 0.0014800763 0.30704266 1.7977069e-38
0.15755987 0.002360539 0.30720246 1.8252934e-38
0.16162841 0.0024261049 0.30817768 1.8069263e-38
-0.087509401 0.0068313573 0.30615389 1.0776044e-38
0.008899143 0.0074821124 0.30529737 1.6965073e-38
0.011996862 0.0076302094 0.3076579 1.6965429e-38
0.12955904 0.0093973381 0.30900002 1.5393419e-38
0.13196345 0.0093272608 0.30900002 1.5394145e-38
0.1489509 0.007381232 0.30890626 1.7424255e-38
0.15218416 0.0083702961 0.30890909 1.7609005e-38
0.15782288 0.0076937005 0.30875349 1.816074e-38
0.16111186 0.0075705852 0.30865377 1.8069263e-38
-0.085880116 0.012261636 0.30654547 1.0776404e-38
-0.084004954 0.012202093 0.30509093 1.0776407e-38
0.007913867 0.012568274 0.30568421 1.7056906e-38
0.011655879 0.011102063 0.30775762 1.6873238e-38
0.12435218 0.012777146 0.30900002 1.4932796e-38
0.12766942 0.012651846 0.30900002 1.5301222e-38
0.1326123 0.01242508 0.30900002 1.5487061e-38
0.13749005 0.012573468 0.30900002 1.6132429e-38
0.14215134 0.01282763 0.30900002 1.67778e-38
0.14830692 0.012439207 0.30861646 1.7423894e-38
0.15261769 0.012505115 0.30804056 1.797635e-38
0.1573891 0.012404343 0.30855128 1.806926e-38
0.16061105 0.011240869 0.30900002 1.8161096e-38
-0.085222714 0.015747109 0.30700001 1.0777126e-38
-0.082334377 0.017905122 0.30552942 1.0684574e-38
0.0046092896 0.019182762 0.30500001 1.6872881e-38
0.0071189557 0.017517641 0.30678573 1.7056908e-38
0.12756613 0.015337603 0.30900002 1.5209387e-38
0.13165416 0.015337602 0.30900002 1.557818e-38
0.13778621 0.015465626 0.30900002 1.6407581e-38
0.14034122 0.015593649 0.30900002 1.6776725e-38
0.14926456 0.016891008 0.30891669 1.7515376e-38
0.15266916 0.01757504 0.30877325 1.779232e-38
0.15647617 0.017117124 0.30900002 1.806854e-38
-0.081868112 0.022699289 0.30611295 1.0868247e-38
-0.079371437 0.024237392 0.30500004 1.0684578e-38
0.004214433 0.0231467 0.30559999 1.6873597e-38
0.0070075751 0.02272897 0.3079178 1.7057269e-38
0.15328163 0.020850122 0.30900002 1.7609009e-38
-0.081603386 0.026402323 0.30666676 1.0776771e-38
-0.079077721 0.027693896 0.30524141 1.0777131e-38
0.0033974794 0.027722938 0.30600005 1.7148746e-38
0.0070601269 0.027216572 0.30833778 1.7148747e-38
-0.080845974 0.032634769 0.30790913 1.0868605e-38
-0.077690139 0.030976893 0.30500004 1.0868967e-38
0.002634435 0.0325341 0.30668253 1.7056909e-38
0.0056868382 0.031001294 0.30871433 1.7241297e-38
-0.080667883 0.036589414 0.30900002 1.1052278e-38
-0.077865541 0.037644409 0.30720001 1.096116e-38
-0.074075356 0.03990674 0.30500001 1.1054797e-38
-0.00083090365 0.038498662 0.30500004 1.7148386e-38
0.0014433998 0.037336074 0.30675432 1.705691e-38
-0.075610034 0.042583887 0.30675003 1.1054078e-38
-0.073399588 0.043099184 0.30533338 1.1145918e-38
-0.0014874121 0.042746712 0.30572924 1.7148746e-38
0.00075875351 0.042108834 0.30750003 1.7056912e-38
-0.075320318 0.047446001 0.3072857 1.0962246e-38
-0.072929136 0.047572888 0.3058033 1.1238474e-38
-0.0019230795 0.047380969 0.30600005 1.7148744e-38
7.0477072e-05 0.045403611 0.30800003 1.6965075e-38
-0.075220831 0.052580025 0.30866671 1.1513262e-38
-0.072478496 0.052433278 0.30709711 1.1605817e-38
-0.068978794 0.053372812 0.30527279 1.151614e-38
-0.0054784855 0.054565165 0.30500001 1.6965429e-38
-0.0028618667 0.052659452 0.30653659 1.7148747e-38
7.0705893e-05 0.051696133 0.30900002 1.7240944e-38
-0.072106756 0.057365868 0.30807406 1.1422868e-38
-0.067861274 0.057594918 0.30562669 1.16087e-38
-0.005478486 0.057345212 0.30500004 1.7240939e-38
-0.0027475441 0.05744122 0.306701 1.724058e-38
7.0705893e-05 0.057329144 0.30900002 1.7148747e-38
-0.071562521 0.062118128 0.30851427 1.1516503e-38
-0.067663811 0.06230687 0.30608422 1.1792378e-38
-0.064996354 0.063410766 0.30500004 1.2070041e-38
-0.0059576561 0.063233837 0.30499998 1.7240581e-38
-0.0036267731 0.062161017 0.30625421 1.7240583e-38
-0.071146868 0.06744945 0.30873173 1.1608703e-38
-0.067668356 0.067536995 0.30681235 1.1885291e-38
-0.064459443 0.067527853 0.30500001 1.2162244e-38
-0.0068502817 0.067884244 0.30572307 1.733242e-38
-0.0040453696 0.067336224 0.30736676 1.7240944e-38
-0.07139305 0.07249286 0.308617 1.1793092e-38
-0.067678064 0.072473466 0.30673671 1.2252996e-38
-0.064239778 0.072509073 0.30500007 1.2162605e-38
-0.010255345 0.0726429 0.30500001 1.7148751e-38
-0.0072698472 0.072557494 0.30638373 1.733278e-38
-0.0038271137 0.072573856 0.30869696 1.7332781e-38
-0.071952932 0.077448867 0.30849203 1.1793816e-38
-0.067707539 0.077537395 0.30631512 1.2161882e-38
-0.064534016 0.077016138 0.30499995 1.2162609e-38
-0.010017985 0.075794607 0.30500001 1.7240949e-38
-0.0072202808 0.077477448 0.30586001 1.7240949e-38
-0.0036574192 0.077564411 0.30842218 1.7241306e-38
-0.07225474 0.082612514 0.30806851 1.1885648e-38
-0.068087935 0.082472861 0.30567107 1.2254436e-38
-0.0065567568 0.08247932 0.30573615 1.7149114e-38
-0.0036218765 0.082352228 0.3080909 1.6965799e-38
-0.072315738 0.087459102 0.307473 1.17027e-38
-0.06795989 0.087572373 0.30522677 1.2070771e-38
-0.0063859597 0.087354459 0.30578691 1.6780691e-38
-0.003699451 0.087956533 0.30797613 1.6597017e-38
-0.071560711 0.090792798 0.30675006 1.0595634e-38
-0.068766788 0.091556504 0.30511534 9.6718825e-39
-0.0058414484 0.091181144 0.30514291 1.40141e-38
-0.00284834 0.09146373 0.30742189 1.2813033e-38
7.0705893e-05 0.092151381 0.30900002 7.9223277e-39
-0.10040735 -0.045298461 0.31400001 1.1975675e-38
-0.099052355 -0.045413557 0.31300002 1.1883842e-38
-0.10045063 -0.043433771 0.31400004 1.1699446e-38
-0.099138603 -0.042992853 0.31300005 1.1699088e-38
0.014938 -0.043180164 0.31 1.5861257e-38
0.017572675 -0.042352658 0.31166673 1.6045288e-38
0.021003945 -0.041887693 0.31372419 1.6137844e-38
0.10444558 -0.041135434 0.31400007 1.2630075e-38
0.10800163 -0.041625824 0.31320584 1.2721552e-38
0.11258065 -0.041823283 0.31137156 1.3088896e-38
0.11733779 -0.041585855 0.31011939 1.3181813e-38
0.12011821 -0.041724537 0.30999997 1.354987e-38
-0.097233057 -0.037097368 0.31104162 1.142286e-38
0.018536298 -0.037699692 0.31237045 1.6690293e-38
0.020654244 -0.037785318 0.31376195 1.6873965e-38
0.10410881 -0.037309956 0.3140001 1.3090329e-38
0.10782071 -0.037503965 0.31303832 1.3182167e-38
0.11254269 -0.037542146 0.31072563 1.3458033e-38
0.11597253 -0.03771387 0.30999997 1.3550234e-38
-0.096732825 -0.033350278 0.31044444 1.1514694e-38
0.018690286 -0.032427635 0.31236735 1.7057994e-38
0.0205734 -0.032534517 0.31385008 1.7150189e-38
0.1033778 -0.032247007 0.31381807 1.3182523e-38
0.10736354 -0.032406755 0.31156781 1.3365837e-38
0.11259096 -0.032635104 0.31001988 1.3458754e-38
0.11726751 -0.032243535 0.31000003 1.3919009e-38
0.12003276 -0.031363934 0.31 1.4195602e-38
-0.1005136 -0.026975032 0.31271431 1.1605087e-38
-0.097261325 -0.027157532 0.31037503 1.1329941e-38
0.018454392 -0.027505627 0.31242308 1.7150191e-38
0.020684708 -0.027107846 0.3140001 1.7333862e-38
0.099149011 -0.02510779 0.31400001 1.3366917e-38
0.10281577 -0.027261507 0.31380206 1.3458393e-38
0.10751195 -0.027615199 0.31198141 1.3642422e-38
0.11182312 -0.027662098 0.31024683 1.3917932e-38
0.1190758 -0.028452689 0.30999997 1.4378911e-38
-0.1000258 -0.023810325 0.31200001 1.1329219e-38
-0.098354273 -0.022645306 0.31122857 1.1237387e-38
0.018239778 -0.023489362 0.31302333 1.7058712e-38
0.020323472 -0.023702767 0.31400001 1.7150189e-38
0.098557025 -0.022256114 0.3140001 1.3642784e-38
0.1024727 -0.022415532 0.31339109 1.3550591e-38
0.10738789 -0.022431904 0.31153476 1.3826095e-38
0.11221767 -0.022255329 0.31004387 1.3826817e-38
0.1177258 -0.020693759 0.30999997 1.4195239e-38
-0.1000258 -0.019156754 0.31200001 1.1145198e-38
-0.098760381 -0.017455507 0.31141931 1.1236313e-38
0.099027097 -0.018623417 0.3140001 1.373462e-38
0.10245854 -0.017734872 0.31277165 1.3734262e-38
0.1074125 -0.01765231 0.31040233 1.3826455e-38
0.11213367 -0.018320994 0.31000018 1.4010486e-38
0.11798214 -0.018327549 0.30999997 1.4103764e-38
-0.097633943 -0.012478704 0.31107697 1.1144109e-38
0.09951251 -0.011473879 0.31400001 1.3643141e-38
0.10283156 -0.012449821 0.3121857 1.3734261e-38
0.10740613 -0.012463664 0.31038764 1.3734621e-38
0.11262114 -0.012181831 0.31006089 1.3918652e-38
0.11760751 -0.012315692 0.30999994 1.4103401e-38
0.12083023 -0.011594105 0.31 1.4471466e-38
-0.095634036 -0.0075634122 0.31016666 1.1236302e-38
-0.094770692 -0.0054196003 0.31 1.0960437e-38
0.10331538 -0.008109876 0.31377411 1.3459112e-38
0.10739126 -0.0074956007 0.31150442 1.3642427e-38
0.11252758 -0.0075517208 0.31023529 1.4010486e-38
0.11746948 -0.0074745994 0.30999988 1.4194875e-38
0.1210367 -0.0076886602 0.31000018 1.4471822e-38
-0.095927723 -0.0027075717 0.31153336 1.0777126e-38
-0.094258033 -0.0041352273 0.31 1.0685289e-38
0.013063783 -0.0012925754 0.31329268 1.7057987e-38
0.015580785 -0.0012397758 0.31400007 1.6966154e-38
0.10457543 -0.002237167 0.3140001 1.3733896e-38
0.10740144 -0.0023655174 0.31183794 1.3642421e-38
0.11247627 -0.0023509364 0.31043807 1.4010126e-38
0.11744706 -0.0022794355 0.31016117 1.4194516e-38
0.12103578 -0.0023147687 0.31000018 1.4288148e-38
-0.096697472 0.0026765454 0.31299999 1.0776047e-38
0.013630183 0.0010447926 0.31306255 1.6874316e-38
0.015555606 0.0017721099 0.31400004 1.687396e-38
0.1045754 0.0017957635 0.31400007 1.3641705e-38
0.10772813 0.0025228274 0.31321856 1.3642065e-38
0.11255933 0.0025658361 0.31186533 1.4009766e-38
0.11749377 0.0025021839 0.31129909 1.428635e-38
0.12234703 0.0025909638 0.31101182 1.4288149e-38
0.12691309 0.0034185245 0.31020933 1.5116469e-38
0.13216567 0.0040847594 0.30999997 1.5486335e-38
0.13910297 0.00385259 0.31053334 1.5949119e-38
0.14179201 0.0034859609 0.31030431 1.6409739e-38
0.14745994 0.0045985081 0.31 1.7423535e-38
-0.096373864 0.0068470403 0.31354555 1.0776047e-38
-0.094092198 0.0095402803 0.31200001 1.0683853e-38
0.10470522 0.0093412474 0.31400001 1.3642064e-38
0.10778701 0.0075899987 0.31331989 1.3733899e-38
0.11252499 0.0074376632 0.31229901 1.3826452e-38
0.11742579 0.0074581867 0.31198987 1.4102679e-38
0.12255718 0.0074840984 0.3120496 1.4746971e-38
0.12750712 0.0074085216 0.31087509 1.5116829e-38
0.13280761 0.0069034384 0.30999997 1.5486339e-38
0.13763121 0.0075057922 0.31040472 1.6131709e-38
0.14243513 0.0075748931 0.31126207 1.6501933e-38
0.14620958 0.0073098969 0.31079629 1.7054752e-38
0.1538142 0.0067887018 0.30999997 1.7793398e-38
0.15591879 0.0070816283 0.30999997 1.8069267e-38
-0.095701359 0.012229092 0.31357902 1.0867519e-38
-0.093096539 0.01232738 0.31197774 1.0683848e-38
0.014009724 0.012403371 0.31088889 1.7149102e-38
0.015633957 0.014529589 0.31366667 1.7148742e-38
0.10360305 0.012458195 0.31319642 1.3457671e-38
0.10744385 0.012522344 0.31153491 1.354987e-38
0.11245115 0.012599478 0.31063843 1.3918286e-38
0.11766962 0.01258352 0.31088451 1.428671e-38
0.12222029 0.012543311 0.31027773 1.4563661e-38
0.12618466 0.010469927 0.30999997 1.5391979e-38
0.13438718 0.014873491 0.31 1.5396307e-38
0.13746312 0.012561619 0.31 1.6224263e-38
0.14263628 0.011464065 0.30999997 1.6869635e-38
0.14632286 0.012515514 0.31000012 1.7238784e-38
0.16267897 0.013079731 0.31051731 1.7976706e-38
0.16591527 0.012878062 0.31185713 1.7517165e-38
-0.095474266 0.015065407 0.31400001 1.0683135e-38
-0.093762226 0.015726937 0.31361544 1.040799e-38
0.0098114256 0.018983485 0.31 1.6965073e-38
0.012818796 0.017815325 0.31247056 1.6965075e-38
0.015973443 0.017596772 0.31387815 1.7148746e-38
0.10435075 0.015464816 0.31388891 1.3642058e-38
0.1080461 0.016706418 0.31285712 1.3550583e-38
0.11238284 0.017533975 0.31169245 1.3918288e-38
0.1174981 0.017529201 0.31151137 1.4194517e-38
0.1224992 0.017508743 0.31113356 1.4564019e-38
0.12738323 0.017677231 0.31077221 1.4841326e-38
0.13253386 0.017741987 0.31081721 1.5395225e-38
0.13755734 0.017981144 0.31066671 1.6040238e-38
0.14258024 0.017551953 0.3102771 1.6594489e-38
0.14699714 0.017592091 0.31 1.7331338e-38
0.15053588 0.019240359 0.31 1.7607928e-38
0.15855278 0.017955987 0.31000003 1.8068902e-38
0.16209665 0.016682252 0.31135133 1.7976707e-38
0.16642132 0.015600989 0.31299999 1.7791597e-38
-0.087970786 0.024740681 0.31133333 1.0775692e-38
0.0095685888 0.022201175 0.30999997 1.6965429e-38
0.012450666 0.022452246 0.31181127 1.6965073e-38
0.015825512 0.022070168 0.3139376 1.705691e-38
0.11287791 0.022204261 0.31321162 1.3734258e-38
0.11756887 0.022517139 0.31270209 1.4102679e-38
0.12252147 0.022458658 0.31262618 1.4379986e-38
0.12755063 0.022563051 0.31254637 1.49328e-38
0.13241631 0.022466872 0.31200019 1.5486341e-38
0.13752404 0.022410976 0.31215799 1.5948401e-38
0.14254615 0.02247734 0.31147286 1.6777804e-38
0.14739595 0.022378275 0.31003869 1.7331699e-38
0.15227552 0.022792086 0.30999997 1.7700483e-38
0.15738429 0.022396531 0.31073132 1.7976707e-38
-0.0880953 0.026823122 0.31188235 1.0592377e-38
0.0092529599 0.02836236 0.31009519 1.6873598e-38
0.012408792 0.027414752 0.31168684 1.705691e-38
0.01558229 0.027396107 0.3140001 1.7056912e-38
0.11451329 0.025916809 0.31370002 1.3734974e-38
0.11741628 0.027064845 0.31329998 1.4285993e-38
0.12269632 0.026824843 0.31346661 1.45633e-38
0.12735336 0.027456488 0.3124947 1.4932803e-38
0.132367 0.027348952 0.31227383 1.5486339e-38
0.1375697 0.027518513 0.31297687 1.6131713e-38
0.14245805 0.0273195 0.31248891 1.6777804e-38
0.14734739 0.027595658 0.31119326 1.751501e-38
0.15247379 0.027538013 0.31076372 1.7884513e-38
0.15701923 0.027673101 0.31216666 1.7884875e-38
0.16026737 0.028855428 0.31400001 1.7884512e-38
-0.087570116 0.032340575 0.31308109 1.0776047e-38
-0.082466908 0.034909707 0.31 1.1144469e-38
0.0073089288 0.032398939 0.31090251 1.7057266e-38
0.012625527 0.030362649 0.31299999 1.6781763e-38
0.12832852 0.032375615 0.31359187 1.5117195e-38
0.13261382 0.032500617 0.31356645 1.5578176e-38
0.13733065 0.032356255 0.31321633 1.6223909e-38
0.14243612 0.032513693 0.31317326 1.6778163e-38
0.14722893 0.032459874 0.31205118 1.751501e-38
0.15247087 0.03250232 0.31213266 1.7792676e-38
0.15741467 0.0325161 0.31342635 1.7885235e-38
0.16008191 0.031271469 0.31399998 1.7976709e-38
-0.087685183 0.035620343 0.31400001 1.0592373e-38
-0.082643941 0.038051534 0.31090003 1.0777129e-38
0.0054714307 0.036053132 0.31100002 1.7057265e-38
0.12805098 0.037483305 0.31357276 1.5117195e-38
0.13249291 0.037555572 0.31278878 1.5578539e-38
0.13729447 0.037475642 0.31325865 1.6315741e-38
0.14249691 0.037318788 0.31342089 1.6685968e-38
0.14729632 0.037487455 0.31230697 1.7331697e-38
0.15241332 0.037258513 0.31314483 1.7792676e-38
0.15620883 0.03612702 0.31400007 1.7884875e-38
-0.082199275 0.042211879 0.31168419 1.0960442e-38
-0.07977546 0.04248751 0.31 1.0869689e-38
0.12868628 0.041153397 0.31360003 1.502572e-38
0.13246606 0.041630987 0.31347734 1.5487061e-38
0.13703674 0.04101729 0.31387106 1.6224263e-38
0.14268045 0.040290046 0.31400007 1.6686686e-38
0.14763586 0.041404393 0.31386498 1.7423892e-38
0.15118007 0.040880684 0.3140001 1.7792313e-38
-0.082171299 0.047000684 0.31263828 1.0960442e-38
-0.079241306 0.047416139 0.31058335 1.0961164e-38
0.0024081368 0.048963651 0.31160003 1.7149107e-38
-0.080533266 0.053003218 0.31266668 1.0960805e-38
-0.076272301 0.054132491 0.30999997 1.1421782e-38
0.0010762751 0.053249069 0.31080946 1.6965435e-38
-0.080784887 0.057489056 0.31384218 1.1053005e-38
-0.077298522 0.057570785 0.31156257 1.1146278e-38
-0.074557349 0.057991721 0.30999997 1.1238834e-38
0.00078944501 0.05641995 0.31019998 1.7057271e-38
-0.080623075 0.061431102 0.31400004 1.0870407e-38
-0.077495076 0.062619142 0.31240001 1.1147e-38
-0.073844701 0.062658407 0.31018755 1.1423943e-38
-0.077448353 0.067271739 0.31287012 1.1239559e-38
-0.073543161 0.067534499 0.31028214 1.151579e-38
-0.077375993 0.072656766 0.31278124 1.1423948e-38
-0.073773138 0.072545439 0.31015629 1.1608345e-38
-0.0016020003 0.072695665 0.31125498 1.7332781e-38
0.00018704045 0.073083036 0.3131111 1.7241303e-38
-0.080563731 0.07862588 0.31399998 1.1515065e-38
-0.077526331 0.077502258 0.31216055 1.142431e-38
-0.074354865 0.077581108 0.30999997 1.1517226e-38
-0.001379621 0.077449791 0.31071743 1.7241306e-38
0.00067600358 0.07795655 0.31274998 1.7241304e-38
-0.081279501 0.082755007 0.31369776 1.1516141e-38
-0.077455834 0.082457133 0.31144315 1.1516864e-38
-0.074730456 0.082221337 0.30999997 1.1701256e-38
-0.0013556656 0.082561821 0.31056103 1.6874323e-38
0.0013731763 0.082451135 0.31316951 1.7057278e-38
-0.082005315 0.087482318 0.31341529 1.1240276e-38
-0.077577554 0.087534733 0.31112507 1.1333558e-38
-0.074777052 0.085257128 0.31 1.1610502e-38
-0.0013182296 0.087565273 0.31086367 1.659702e-38
0.001822615 0.08778014 0.31305185 1.6413347e-38
-0.081312433 0.090765469 0.31272724 1.0410521e-38
-0.077802062 0.091011435 0.31115153 9.6744006e-39
-0.00044207895 0.090723976 0.31024998 1.5581427e-38
0.0023022429 0.091033943 0.31244445 1.4105936e-38
0.02343012 -0.042252097 0.31545445 1.6045647e-38
0.027020784 -0.041870955 0.31708774 1.6137485e-38
0.030318679 -0.041173682 0.31900001 1.6230038e-38
0.097630516 -0.041358102 0.31775475 1.2813748e-38
0.10176513 -0.041512832 0.31567997 1.2721556e-38
0.023079187 -0.037356526 0.31563234 1.6873967e-38
0.027333159 -0.037577488 0.31760925 1.6782489e-38
0.030290617 -0.037948802 0.3188462 1.650662e-38
0.094216935 -0.036418401 0.31886667 1.3366197e-38
0.097533874 -0.037498612 0.31736389 1.3090333e-38
0.10169223 -0.03754922 0.31528983 1.308997e-38
-0.10769302 -0.031450681 0.31823528 1.1698732e-38
-0.10402293 -0.031543016 0.31577778 1.1515057e-38
0.02304451 -0.032462262 0.31568256 1.7150551e-38
0.027451519 -0.032620456 0.3178314 1.7150912e-38
0.030662499 -0.031077124 0.31891668 1.7334946e-38
0.093414314 -0.03231173 0.3184689 1.3550593e-38
0.097385682 -0.032497801 0.31653464 1.3549872e-38
0.10103576 -0.032776505 0.31499988 1.345803e-38
-0.10782096 -0.02712352 0.31813216 1.1698728e-38
-0.10450823 -0.029670129 0.31566668 1.1240262e-38
0.023101252 -0.027559025 0.31550741 1.733458e-38
0.027357554 -0.027472541 0.31673622 1.7335304e-38
0.031873662 -0.027096206 0.31852636 1.7519695e-38
0.088752642 -0.02614199 0.3190001 1.3827178e-38
0.092740148 -0.027289271 0.31834897 1.3643147e-38
0.097387046 -0.027614199 0.31618634 1.3642427e-38
0.10050664 -0.028163349 0.31500003 1.3458394e-38
-0.10734396 -0.023781851 0.31778565 1.160617e-38
-0.10470495 -0.021235276 0.31600001 1.1329944e-38
0.019606808 -0.02195113 0.31500003 1.7150189e-38
0.02289113 -0.022672441 0.31610301 1.733422e-38
0.027389674 -0.022395426 0.31698918 1.742714e-38
0.0321851 -0.022858802 0.31858465 1.761153e-38
0.035418242 -0.0240802 0.31900001 1.7704086e-38
0.084268048 -0.021472266 0.31873333 1.3920095e-38
0.087546639 -0.022415247 0.31819075 1.3736061e-38
0.09258531 -0.022517864 0.31719154 1.3734985e-38
0.096194707 -0.022651672 0.31540805 1.3642785e-38
-0.10597225 -0.016914707 0.31724998 1.1329225e-38
-0.1046812 -0.018735833 0.31600001 1.1145555e-38
0.018807786 -0.018634643 0.31743747 1.6966157e-38
0.022458237 -0.0184936 0.31840822 1.7150189e-38
0.027293352 -0.018823879 0.31857583 1.7426779e-38
0.030670375 -0.019586552 0.31900001 1.7702647e-38
0.084303714 -0.018969776 0.31900001 1.3920817e-38
0.087825604 -0.018119361 0.31864074 1.3919734e-38
0.09266758 -0.017579278 0.31795931 1.3551672e-38
0.097193211 -0.017255718 0.31626967 1.3826456e-38
0.10008989 -0.015425688 0.31500003 1.3459469e-38
-0.10720255 -0.012017571 0.31826535 1.1513252e-38
-0.10440563 -0.010659987 0.31687498 1.1144832e-38
0.018872637 -0.010647316 0.31900001 1.6966157e-38
0.021671144 -0.010443767 0.31900007 1.7241304e-38
0.025658734 -0.010070591 0.31900001 1.7241665e-38
0.089359313 -0.012185249 0.31900012 1.3735703e-38
0.092516199 -0.012404045 0.31842595 1.3734982e-38
0.097348556 -0.012522974 0.31668314 1.3642428e-38
0.1000899 -0.013076528 0.31500003 1.3643143e-38
-0.10639399 -0.0083162142 0.3183333 1.1237021e-38
-0.10416576 -0.0086896867 0.3168571 1.1144829e-38
0.019121572 -0.0089264531 0.31800005 1.6874681e-38
0.022034969 -0.0070625106 0.31699994 1.6965797e-38
0.027715538 -0.0062474781 0.31787094 1.7149466e-38
0.089227431 -0.0074272691 0.31900012 1.3827175e-38
0.0925605 -0.0074545876 0.31805235 1.3643146e-38
0.097688302 -0.0074791037 0.31665975 1.3458756e-38
0.1014182 -0.0068596085 0.31526518 1.3275082e-38
-0.10583086 -0.0041231168 0.31900001 1.1236669e-38
-0.10207584 -0.0011498677 0.31664282 1.086896e-38
0.018730145 -0.0013346625 0.31580555 1.6965794e-38
0.022571333 -0.0023835883 0.31639999 1.6873958e-38
0.027438207 -0.0023192223 0.31661043 1.7057269e-38
0.031410363 -0.0021138119 0.31859097 1.6781405e-38
0.089491203 -0.0039909505 0.31900001 1.3551673e-38
0.092762627 -0.0026179757 0.31860703 1.3459477e-38
0.097537562 -0.0023944294 0.31772023 1.3642067e-38
0.10213207 -0.002414518 0.31598958 1.3550225e-38
-0.10232776 0.00067466241 0.317 1.0961154e-38
0.018144326 0.0025380407 0.31549206 1.6873957e-38
0.023050888 0.0024383063 0.31774583 1.7057268e-38
0.027457172 0.002549384 0.31735709 1.6965073e-38
0.031392474 0.0025792052 0.31852177 1.6872879e-38
0.093661875 0.0026159883 0.3188335 1.3275445e-38
0.097621366 0.0026091333 0.31798917 1.3366917e-38
0.10242563 0.0027118097 0.31642854 1.3549867e-38
0.10529915 0.0046726777 0.31500003 1.3733545e-38
0.018773593 0.0064964886 0.31585714 1.6965431e-38
0.022470681 0.0068765674 0.31819317 1.6965073e-38
0.027162956 0.0056206589 0.31889483 1.6873238e-38
0.030670375 0.0052606775 0.31900001 1.668921e-38
0.094036125 0.0062095504 0.31885004 1.3367279e-38
0.097517662 0.0076467926 0.31779465 1.345839e-38
0.10253368 0.007477493 0.31610587 1.3366196e-38
0.10551882 0.0066678543 0.31509095 1.3641702e-38
-0.096820176 0.01459135 0.31500003 1.0408346e-38
0.019993411 0.014683994 0.317 1.7057271e-38
0.022405557 0.0135582 0.31869781 1.6781403e-38
0.026612367 0.014451304 0.31900004 1.6781044e-38
0.098057888 0.01173744 0.31811488 1.3273999e-38
0.10135728 0.012622496 0.31579986 1.3457671e-38
-0.096171387 0.018180428 0.31603029 1.0499464e-38
-0.09412428 0.018781764 0.31523079 1.0408346e-38
0.01858723 0.017509736 0.3154363 1.6965076e-38
0.022583781 0.017421091 0.31732151 1.6964715e-38
0.026958497 0.017134404 0.31845012 1.6781042e-38
0.10248909 0.01656324 0.31752503 1.3366193e-38
0.10698287 0.019216504 0.31682351 1.3366552e-38
-0.096420571 0.022353714 0.3171905 1.0592012e-38
-0.093715206 0.022303004 0.31575748 1.0591654e-38
0.017833995 0.022316758 0.31536105 1.6965073e-38
0.022290675 0.021657826 0.31829172 1.6781404e-38
0.02557081 0.020239502 0.31900001 1.6964356e-38
0.10831957 0.022051625 0.3176457 1.3458033e-38
0.11114677 0.023824275 0.31570837 1.364206e-38
-0.096033141 0.026456226 0.31800002 1.0316504e-38
-0.093879215 0.026727034 0.31650001 1.0500538e-38
0.017992293 0.026874062 0.31655559 1.6965073e-38
0.020480501 0.02749241 0.3190001 1.6964716e-38
0.10942289 0.025940074 0.3186667 1.327436e-38
0.11259294 0.0272967 0.31688508 1.3642422e-38
0.11664577 0.029257363 0.31527278 1.4101961e-38
0.12243646 0.029111702 0.31526664 1.4562938e-38
