# .PCD v0.7 - Point Cloud Data file format
VERSION 0.7
FIELDS x y z rgb
SIZE 4 4 4 4
TYPE F F F F
COUNT 1 1 1 1
WIDTH 954
HEIGHT 1
VIEWPOINT 0 0 0 1 0 0 0
POINTS 954
DATA ascii
-0.082430288 -0.057439983 0.19270219 1.4195236e-38
-0.077520959 -0.057438906 0.19300048 1.4471829e-38
-0.072605453 -0.057488814 0.19308445 1.4103766e-38
-0.067499615 -0.057555366 0.19350041 1.3458757e-38
-0.062516376 -0.057565577 0.19400021 1.3367279e-38
-0.05768694 -0.057585571 0.19400021 1.3643506e-38
-0.047414694 -0.058667965 0.19400008 1.3828614e-38
-0.097274989 -0.052517492 0.19200012 1.5578182e-38
-0.09257102 -0.052571554 0.19216771 1.5301595e-38
-0.087450907 -0.05251674 0.19254209 1.4840975e-38
-0.082488507 -0.052484766 0.19300047 1.419488e-38
-0.077531554 -0.052440941 0.19300045 1.4471108e-38
-0.0725234 -0.052615263 0.19368671 1.4011931e-38
-0.067489117 -0.052582204 0.19400021 1.3366203e-38
-0.062516376 -0.052582271 0.19400021 1.3182529e-38
-0.058882661 -0.053298689 0.19400018 1.3459476e-38
-0.097274981 -0.047585446 0.1920002 1.5485629e-38
-0.092589721 -0.047564488 0.19261302 1.5301235e-38
-0.087568223 -0.047513455 0.1930005 1.4840614e-38
-0.082498193 -0.047515959 0.1930005 1.4286716e-38
-0.077460766 -0.047514141 0.19300939 1.4010485e-38
-0.072580859 -0.047464609 0.19359955 1.3919016e-38
-0.06748911 -0.047438171 0.19400021 1.3458758e-38
-0.062516369 -0.047438182 0.19400021 1.2998138e-38
-0.059308115 -0.047990315 0.19400017 1.3182889e-38
-0.097274974 -0.042494394 0.1920002 1.4933173e-38
-0.092653617 -0.042503521 0.19246487 1.5209036e-38
-0.087568209 -0.042555861 0.19300048 1.4748417e-38
-0.082462639 -0.042554397 0.19301297 1.4379634e-38
-0.077418856 -0.04249284 0.19370939 1.4011209e-38
-0.072461911 -0.042454805 0.19400021 1.3826819e-38
-0.067489125 -0.042454757 0.19400021 1.336692e-38
-0.06284631 -0.042865798 0.1940002 1.2906661e-38
-0.059949756 -0.043419313 0.19400001 1.3090693e-38
-0.097166352 -0.037483744 0.19257464 1.5301598e-38
-0.092480086 -0.037540946 0.19296196 1.5025008e-38
-0.087568216 -0.037598096 0.1930005 1.4655861e-38
-0.082475677 -0.037568953 0.19309495 1.4103766e-38
-0.077415735 -0.037466396 0.19400021 1.3919016e-38
-0.072461888 -0.037471395 0.19400021 1.3734985e-38
-0.067773059 -0.037817836 0.19400021 1.3459117e-38
-0.064468034 -0.039427254 0.19400001 1.2907022e-38
-0.097320236 -0.032481872 0.19300047 1.5301238e-38
-0.092767201 -0.03265769 0.19300042 1.5025008e-38
-0.087477036 -0.032921471 0.19329788 1.4564026e-38
-0.082530253 -0.032464109 0.19392791 1.4195243e-38
-0.077434689 -0.032488059 0.19400021 1.3826819e-38
-0.072714321 -0.032683894 0.1940002 1.3551673e-38
-0.069426425 -0.034417097 0.19400001 1.336764e-38
-0.097302794 -0.027522808 0.19300045 1.5209041e-38
-0.09258002 -0.027446177 0.19300044 1.4932451e-38
-0.087601744 -0.027442457 0.19300912 1.4748057e-38
-0.08241602 -0.027473906 0.19356558 1.4103408e-38
-0.07747034 -0.027525119 0.19400021 1.3827179e-38
-0.07371714 -0.028324554 0.19400018 1.3735344e-38
-0.097302817 -0.02256518 0.19300048 1.4932452e-38
-0.092577159 -0.022626905 0.19315833 1.4840614e-38
-0.087641947 -0.022900252 0.19325604 1.4564386e-38
-0.082710832 -0.022746323 0.1939007 1.4195603e-38
-0.077301495 -0.022654817 0.19400021 1.3735345e-38
-0.073606089 -0.022643693 0.1940002 1.3735704e-38
-0.097337514 -0.017727876 0.19339107 1.4564027e-38
-0.092272311 -0.017529525 0.1938637 1.4565106e-38
-0.087528527 -0.017517705 0.19400021 1.4471831e-38
-0.082887962 -0.017365472 0.19400021 1.4288156e-38
-0.076753691 -0.018535867 0.19400018 1.3827898e-38
-0.074458152 -0.019592028 0.19400001 1.4011932e-38
-0.097325779 -0.012554578 0.19400021 1.4564028e-38
-0.092513427 -0.012554576 0.19400021 1.4564386e-38
-0.087540641 -0.012554574 0.19400021 1.447255e-38
-0.083156064 -0.012602028 0.1940002 1.4379996e-38
-0.097325779 -0.0075711966 0.19400021 1.447219e-38
-0.093036361 -0.0080207698 0.1940002 1.4564024e-38
-0.087330952 -0.0078621246 0.19400021 1.4655861e-38
-0.084313527 -0.008209506 0.19400017 1.447183e-38
-0.097325779 -0.0024271007 0.19400021 1.4379633e-38
-0.092642978 -0.0023497506 0.19400021 1.4564027e-38
-0.08916422 -0.0019302244 0.19400017 1.4748777e-38
-0.097325772 0.0025562653 0.19400021 1.4287437e-38
-0.092513435 0.002556266 0.19400021 1.4563666e-38
-0.089475639 0.0020840543 0.1940001 1.4379637e-38
-0.097226731 0.0072313137 0.1940002 1.447219e-38
-0.092708215 0.0055818819 0.19400015 1.447255e-38
-0.08953689 0.0054855589 0.19400001 1.4381076e-38
-0.096625037 0.010526269 0.19400001 1.4655863e-38
-0.017296202 -0.080246992 0.19600001 1.3921899e-38
-0.012434224 -0.080247 0.19600002 1.4196686e-38
-0.006510119 -0.080038257 0.19685714 1.4104129e-38
-0.0032942239 -0.080003463 0.19700001 1.3920821e-38
0.0033805012 -0.080158919 0.197 1.3921532e-38
0.0073752529 -0.080166698 0.19700001 1.382934e-38
0.012346289 -0.08016108 0.19700001 1.3921176e-38
0.018085161 -0.080378801 0.19799997 1.3921177e-38
0.0224749 -0.080409557 0.19799997 1.3737149e-38
0.028188154 -0.080577098 0.19885713 1.3369085e-38
0.032625742 -0.080650799 0.19900011 1.3460559e-38
0.037562136 -0.080650784 0.19900011 1.3459839e-38
0.041145593 -0.080669127 0.19900002 1.3367645e-38
0.054674972 -0.080156095 0.19900002 1.3275811e-38
0.057342354 -0.080624744 0.19900009 1.3183975e-38
-0.036400001 -0.076356605 0.19499993 1.41974e-38
-0.032474663 -0.077272028 0.1949998 1.4197401e-38
-0.027546231 -0.077580839 0.19499977 1.4105564e-38
-0.022375766 -0.077451915 0.19554465 1.4105923e-38
-0.017458271 -0.077485949 0.19599946 1.3921895e-38
-0.012434222 -0.077486008 0.19599944 1.3921533e-38
-0.007392175 -0.077440657 0.19659877 1.3921174e-38
-0.002585338 -0.077340268 0.19699976 1.382934e-38
0.0024835337 -0.077414714 0.19699986 1.3737505e-38
0.0074966033 -0.077654563 0.1970001 1.3737505e-38
0.012625664 -0.077475719 0.19699986 1.3737506e-38
0.017812042 -0.077407353 0.19791636 1.3737505e-38
0.022265891 -0.07744588 0.19800024 1.3645312e-38
0.027913427 -0.077406935 0.19895487 1.3368725e-38
0.032625739 -0.077517726 0.19900022 1.3276529e-38
0.037562136 -0.077517673 0.19900022 1.3183972e-38
0.042488452 -0.077011906 0.19899981 1.3091775e-38
0.045542642 -0.077542454 0.19899997 1.3091418e-38
0.054674972 -0.079496503 0.19900002 1.3459123e-38
0.057237785 -0.079080172 0.19900016 1.3091779e-38
-0.041789964 -0.072351329 0.19499981 1.4196678e-38
-0.03751459 -0.072575867 0.19499977 1.4105201e-38
-0.03252567 -0.072566368 0.19499977 1.4013367e-38
-0.02762768 -0.07265614 0.19508982 1.4013367e-38
-0.022102315 -0.072452836 0.19592954 1.4105563e-38
-0.017458273 -0.072451256 0.19599949 1.3829698e-38
-0.012600939 -0.072471179 0.19614103 1.3737502e-38
-0.0074287765 -0.07247521 0.19699523 1.3737503e-38
-0.002543356 -0.072463222 0.19699974 1.3737502e-38
0.0024884699 -0.072494462 0.19699964 1.3645668e-38
0.0071427482 -0.071927011 0.197304 1.3553115e-38
0.012435743 -0.07246618 0.19756058 1.3461638e-38
0.017448708 -0.072488062 0.19800048 1.3553831e-38
0.022200776 -0.072575197 0.19833529 1.3461635e-38
0.027524816 -0.07257089 0.1990003 1.3368721e-38
0.032625746 -0.072570853 0.19900022 1.3092854e-38
0.037278254 -0.072954983 0.19899997 1.2908104e-38
0.042081676 -0.074307725 0.19900011 1.2907385e-38
-0.051782981 -0.066913657 0.19499984 1.4012288e-38
-0.047021706 -0.066652462 0.19499983 1.4012288e-38
-0.044134863 -0.068187878 0.19500008 1.4012288e-38
-0.036950499 -0.067513168 0.1949998 1.3921172e-38
-0.032502305 -0.067565739 0.19526789 1.3828977e-38
-0.027826194 -0.067446716 0.19594043 1.3829696e-38
-0.022199987 -0.067472711 0.19595191 1.3829337e-38
-0.017566899 -0.067660846 0.19623235 1.3737502e-38
-0.012484756 -0.06755507 0.1969637 1.3645306e-38
-0.00760687 -0.067780599 0.19699983 1.3645306e-38
-0.0024657438 -0.067671724 0.19699977 1.364495e-38
0.0023451403 -0.067683391 0.19702649 1.3553116e-38
0.0076644858 -0.067511044 0.19790456 1.3277248e-38
0.012487995 -0.06761229 0.19800051 1.3277608e-38
0.017268078 -0.067782082 0.1982421 1.3369441e-38
0.022285208 -0.0673315 0.19896127 1.3369084e-38
0.027489908 -0.067392439 0.19900008 1.3184693e-38
0.032789454 -0.067695975 0.19900008 1.300066e-38
0.036345486 -0.067590646 0.19900002 1.2816627e-38
-0.056074735 -0.063253902 0.1949999 1.3827538e-38
-0.052519269 -0.062548198 0.19499977 1.4012288e-38
-0.047471743 -0.06276387 0.19499977 1.4012288e-38
-0.042532168 -0.062475409 0.19499977 1.3828256e-38
-0.037636418 -0.062626362 0.19499977 1.3828617e-38
-0.032414727 -0.062494535 0.19590406 1.373714e-38
-0.027506365 -0.062544152 0.19599946 1.3736782e-38
-0.022508092 -0.062570393 0.19600734 1.3553471e-38
-0.017548406 -0.062414147 0.19657943 1.3553471e-38
-0.012868606 -0.062292777 0.19699985 1.3460916e-38
-0.0074479897 -0.062536784 0.19699964 1.3369084e-38
-0.0025958647 -0.062588885 0.19699967 1.3277248e-38
0.0025200667 -0.062503986 0.19757088 1.3185413e-38
0.0075612757 -0.062541336 0.19800058 1.300174e-38
0.012487996 -0.062526137 0.19800059 1.3093217e-38
0.017038113 -0.062412392 0.19800036 1.3093219e-38
0.022934768 -0.062392779 0.19899996 1.3093576e-38
0.027537769 -0.062492639 0.19900034 1.2909186e-38
0.031788245 -0.06269601 0.19899979 1.2816632e-38
-0.055283401 -0.055600218 0.19500002 1.3551667e-38
-0.05249903 -0.057537772 0.19499978 1.3828257e-38
-0.047427151 -0.057013124 0.1949998 1.3736422e-38
-0.042522479 -0.057549287 0.19499978 1.3552749e-38
-0.037659891 -0.057519805 0.19531052 1.3644586e-38
-0.032520249 -0.057499941 0.19599946 1.3460555e-38
-0.027468048 -0.057544895 0.19599949 1.3460915e-38
-0.02244335 -0.057511456 0.19665976 1.3277245e-38
-0.017547347 -0.057476405 0.19699971 1.3093573e-38
-0.012497663 -0.057476405 0.19699964 1.3093216e-38
-0.0075040385 -0.057443131 0.19744623 1.3093217e-38
-0.0025354335 -0.057346299 0.19796325 1.3001382e-38
0.0025011017 -0.057439987 0.19800059 1.3001382e-38
0.0074935663 -0.057520062 0.19801904 1.2909186e-38
0.012473502 -0.057598479 0.19819927 1.2909186e-38
0.017362125 -0.057456352 0.19800034 1.2909186e-38
0.022889085 -0.057210524 0.19890489 1.2909548e-38
0.027385464 -0.057547431 0.19900021 1.2632599e-38
0.03098028 -0.058514304 0.19900002 1.2448568e-38
-0.056564175 -0.052237999 0.19499981 1.3550953e-38
-0.05251928 -0.05253011 0.19499977 1.3368001e-38
-0.047520876 -0.052530177 0.19499977 1.3460556e-38
-0.042502973 -0.052531198 0.19513777 1.3368359e-38
-0.037538543 -0.052459035 0.19588035 1.3276524e-38
-0.03253042 -0.052474756 0.19599944 1.3276883e-38
-0.027641218 -0.052558053 0.19604908 1.3184691e-38
-0.022492662 -0.05243608 0.1967649 1.3093213e-38
-0.017520448 -0.052600224 0.19699976 1.3092854e-38
-0.012497663 -0.052579269 0.19699964 1.2909185e-38
-0.0071000909 -0.052574821 0.19798426 1.2909185e-38
-0.0025742075 -0.05251798 0.19800051 1.2817349e-38
0.002501101 -0.052517965 0.19800059 1.2817349e-38
0.0072702351 -0.052501302 0.19804759 1.2817351e-38
0.012740133 -0.05285446 0.19883832 1.2724793e-38
0.017425457 -0.052323587 0.19876282 1.2725155e-38
0.022641815 -0.052307926 0.19896318 1.2725515e-38
0.027284004 -0.052537888 0.19900015 1.2724795e-38
0.030770857 -0.050909378 0.19900006 1.2448568e-38
-0.056811478 -0.047343448 0.1949998 1.3275083e-38
-0.05251928 -0.047521111 0.19499978 1.3275805e-38
-0.047520872 -0.047521137 0.19499977 1.3368361e-38
-0.042384446 -0.047379423 0.19557257 1.3276166e-38
-0.037554443 -0.047439918 0.19599949 1.3092496e-38
-0.032596078 -0.047504399 0.19599947 1.3000659e-38
-0.027483188 -0.047411267 0.1963746 1.2909182e-38
-0.022347366 -0.047428947 0.19692893 1.3001019e-38
-0.017547343 -0.047518756 0.19699964 1.3001019e-38
-0.012535156 -0.0475538 0.19699959 1.2908825e-38
-0.0071522449 -0.047590055 0.19798397 1.2909183e-38
-0.0025742075 -0.047595959 0.19800051 1.2817349e-38
0.0025011012 -0.047595974 0.19800059 1.2725155e-38
0.007667026 -0.047563523 0.19860117 1.2725155e-38
0.012599529 -0.047301002 0.19892432 1.2541121e-38
0.017322127 -0.047430728 0.19900015 1.2632959e-38
0.021916732 -0.046544146 0.19900011 1.2633319e-38
0.029373527 -0.049446471 0.19900005 1.2540764e-38
0.030717006 -0.049309377 0.19900005 1.2540764e-38
-0.061268277 -0.040847037 0.19500005 1.2722991e-38
-0.057440996 -0.042466443 0.19499977 1.3091412e-38
-0.052543491 -0.042542174 0.19500399 1.3184327e-38
-0.047440406 -0.042424675 0.19566308 1.3276165e-38
-0.042395558 -0.042532045 0.19597235 1.3092494e-38
-0.037554443 -0.042567696 0.19599949 1.2908463e-38
-0.032715786 -0.042490859 0.19601758 1.2908823e-38
-0.027301848 -0.042571712 0.19699067 1.2908822e-38
-0.022434123 -0.042458337 0.19699971 1.2724791e-38
-0.017547345 -0.042458337 0.19699971 1.2724791e-38
-0.012507668 -0.042511676 0.19742563 1.2633314e-38
-0.0074857948 -0.042509776 0.19800059 1.2633315e-38
-0.0025742077 -0.042509794 0.19800059 1.2632958e-38
0.0023094828 -0.042438414 0.19800049 1.2633317e-38
0.0079509271 -0.042648125 0.19885454 1.2541483e-38
0.012551069 -0.04255959 0.19900022 1.2541481e-38
0.017421041 -0.042624649 0.19900019 1.2541483e-38
0.02130409 -0.043634638 0.19900016 1.2632959e-38
-0.065922305 -0.035836667 0.19500005 1.3459116e-38
-0.062435493 -0.03740849 0.19499978 1.2998498e-38
-0.057473909 -0.037471097 0.19545744 1.2907381e-38
-0.052445322 -0.037404973 0.19580314 1.2999577e-38
-0.047440439 -0.037532881 0.19599944 1.3000297e-38
-0.042416401 -0.037532937 0.19599946 1.2908462e-38
-0.037638843 -0.0376608 0.19605748 1.2632236e-38
-0.032426436 -0.037642587 0.19600359 1.272443e-38
-0.027257115 -0.037553512 0.19676299 1.2724432e-38
-0.022564566 -0.037664328 0.19705321 1.2540759e-38
-0.017522143 -0.037524581 0.1973815 1.2540758e-38
-0.012449605 -0.037445184 0.19764906 1.2448923e-38
-0.0074857948 -0.037423678 0.19800051 1.2449283e-38
-0.002574207 -0.037423685 0.19800051 1.2357447e-38
0.0022208164 -0.037405968 0.19825809 1.2449283e-38
0.0076370127 -0.037578356 0.19900021 1.254148e-38
0.012590435 -0.037765749 0.19900015 1.2449285e-38
0.017392561 -0.037525266 0.19900018 1.2449287e-38
0.021261878 -0.036721017 0.19900016 1.2541481e-38
-0.070727803 -0.030947359 0.19500004 1.3551674e-38
-0.067357369 -0.032329597 0.19499977 1.3459477e-38
-0.062520161 -0.032502715 0.19499977 1.2998858e-38
-0.057443067 -0.032453507 0.19581418 1.2722991e-38
-0.052548628 -0.032628395 0.1959995 1.2815546e-38
-0.047411017 -0.032525614 0.19599947 1.2631876e-38
-0.042416394 -0.032498185 0.19599949 1.2632236e-38
-0.037652381 -0.032473516 0.1962065 1.2448204e-38
-0.0325634 -0.032216329 0.1969762 1.2448204e-38
-0.027446218 -0.032431323 0.19699961 1.2448562e-38
-0.022798287 -0.032453623 0.19707026 1.2356727e-38
-0.017472688 -0.032501627 0.19800059 1.2264891e-38
-0.012397389 -0.032501638 0.19800051 1.2357086e-38
-0.0074857944 -0.032501642 0.19800051 1.2265252e-38
-0.0024943438 -0.032357603 0.19800037 1.2265253e-38
0.0026704138 -0.032468349 0.19864443 1.2265253e-38
0.0076146754 -0.032500889 0.1990003 1.235709e-38
0.012570001 -0.032362245 0.19900024 1.2265256e-38
0.017180458 -0.033418328 0.19899981 1.2265615e-38
0.020634418 -0.0345621 0.19900005 1.2173779e-38
-0.071537957 -0.027255135 0.19499983 1.3643507e-38
-0.067514509 -0.027484898 0.19499977 1.3459837e-38
-0.062526204 -0.027494978 0.19499978 1.3091055e-38
-0.057401542 -0.027425015 0.19585489 1.2630798e-38
-0.052594028 -0.027191004 0.19589011 1.2539325e-38
-0.047365043 -0.027396612 0.19597922 1.2539682e-38
-0.042416394 -0.027463423 0.19599946 1.2540039e-38
-0.037717231 -0.02746474 0.19612513 1.2447844e-38
-0.032533482 -0.027440296 0.19699971 1.2356008e-38
-0.027744766 -0.027556466 0.19707708 1.2264531e-38
-0.022458157 -0.027397888 0.19777618 1.2172696e-38
-0.01747269 -0.027579578 0.19800059 1.2173056e-38
-0.01239739 -0.0275796 0.19800051 1.2173055e-38
-0.0074763801 -0.027595786 0.19846861 1.1989026e-38
-0.0026581862 -0.027369235 0.19885556 1.2080865e-38
0.0025435875 -0.027379392 0.19900028 1.21727e-38
0.0075680916 -0.027450806 0.19900019 1.2080863e-38
0.0123686 -0.027346639 0.19900011 1.2080865e-38
0.016159745 -0.025535412 0.19900002 1.2080504e-38
-0.081011184 -0.020356247 0.19499999 1.4104126e-38
-0.07992994 -0.020213673 0.19500001 1.4196324e-38
-0.071296595 -0.022268904 0.19499984 1.364387e-38
-0.067514502 -0.022475842 0.19499977 1.3459839e-38
-0.062554114 -0.022455975 0.19501671 1.2907385e-38
-0.057427421 -0.022457583 0.19595657 1.253896e-38
-0.052464545 -0.022428639 0.19599949 1.253896e-38
-0.047456905 -0.022467239 0.19599947 1.2447485e-38
-0.042428769 -0.022522448 0.19624594 1.2448205e-38
-0.037350953 -0.02244658 0.19688547 1.2355649e-38
-0.032533482 -0.02254311 0.19699971 1.2171977e-38
-0.027543677 -0.022509627 0.19699967 1.2172336e-38
-0.022214781 -0.022493262 0.19794087 1.208014e-38
-0.017472688 -0.022493472 0.19800067 1.1896469e-38
-0.012397391 -0.022493456 0.19800059 1.1896469e-38
-0.0079189362 -0.022365861 0.19811553 1.1803915e-38
-0.0027902653 -0.022188608 0.1987869 1.1620601e-38
0.0026722415 -0.022357464 0.19900019 1.1712438e-38
0.0069145234 -0.022125684 0.19899981 1.1804634e-38
0.013281962 -0.023669323 0.19900012 1.1804992e-38
0.016705867 -0.023174701 0.19899999 1.1804994e-38
-0.080655515 -0.01886042 0.19499999 1.4011931e-38
-0.07735838 -0.016016681 0.1949999 1.4011929e-38
-0.072437137 -0.017396789 0.19499978 1.3735704e-38
-0.067498818 -0.017576875 0.19499978 1.3459837e-38
-0.062474102 -0.017705865 0.1950307 1.3091415e-38
-0.057452064 -0.017535128 0.19596559 1.2538603e-38
-0.052464537 -0.017556349 0.19599949 1.2446766e-38
-0.047636896 -0.017270336 0.19659667 1.2355288e-38
-0.042331759 -0.017364971 0.19694479 1.2263454e-38
-0.037420258 -0.017482689 0.19699964 1.208014e-38
-0.0326485 -0.017593825 0.19710943 1.1895387e-38
-0.027482156 -0.017312186 0.19787648 1.1803552e-38
-0.022548009 -0.017407367 0.19800051 1.1803913e-38
-0.017472688 -0.017407365 0.19800059 1.1619523e-38
-0.012417944 -0.017426495 0.19800049 1.1619884e-38
-0.0073650056 -0.017441243 0.19865923 1.1527685e-38
-0.0025872081 -0.017490868 0.19900022 1.1343292e-38
0.0014968356 -0.018461553 0.19900002 1.1342931e-38
0.007729358 -0.018974341 0.19900012 1.1896468e-38
-0.080565691 -0.011806771 0.19500007 1.4104128e-38
-0.077482641 -0.01243665 0.19499977 1.38279e-38
-0.072512917 -0.012457718 0.19499977 1.3643869e-38
-0.067582205 -0.012538265 0.19526574 1.3459836e-38
-0.06261804 -0.012118806 0.19580908 1.3091774e-38
-0.057469416 -0.012508822 0.19599944 1.2538964e-38
-0.05251281 -0.012497414 0.19599947 1.2262735e-38
-0.04744073 -0.012470379 0.19679882 1.2079064e-38
-0.042469934 -0.012422246 0.19699964 1.1987587e-38
-0.037420269 -0.012422247 0.19699971 1.1987224e-38
-0.032670304 -0.012477956 0.19700947 1.1619519e-38
-0.027268469 -0.012443152 0.19790524 1.1711356e-38
-0.022548003 -0.012485305 0.19800051 1.1619165e-38
-0.017472688 -0.012485317 0.19800059 1.1619165e-38
-0.012570006 -0.012518182 0.19836369 1.1527685e-38
-0.0075133191 -0.012538053 0.19900022 1.1435489e-38
-0.003549929 -0.013690339 0.19900014 1.1159263e-38
-0.091531657 -0.0062912833 0.19500007 1.4655861e-38
-0.08195395 -0.0072585703 0.19499981 1.4380356e-38
-0.077511333 -0.0074486653 0.19499977 1.4196324e-38
-0.072597817 -0.0075197034 0.19503279 1.3736424e-38
-0.067356966 -0.0075099575 0.19591732 1.3368361e-38
-0.062512591 -0.0074868663 0.19599949 1.3091775e-38
-0.057488553 -0.0074868635 0.19599946 1.2538962e-38
-0.052527424 -0.0075389333 0.196041 1.2078701e-38
-0.047635913 -0.0074385642 0.19671491 1.189467e-38
-0.042176001 -0.007401967 0.19660255 1.189467e-38
-0.037566096 -0.0076600122 0.19707336 1.1895029e-38
-0.03237249 -0.0073890663 0.19790091 1.1435129e-38
-0.027469819 -0.0075544761 0.19800051 1.1435489e-38
-0.022534238 -0.0075923819 0.19800043 1.1343654e-38
-0.017588031 -0.008012102 0.19824405 1.1343654e-38
-0.012539075 -0.0076839854 0.19831549 1.1343654e-38
-0.0077261222 -0.0078771282 0.19900006 1.1343655e-38
-0.003946506 -0.0083853137 0.19900014 1.1251817e-38
-0.08665093 -0.0022923432 0.1949998 1.4749137e-38
-0.082509741 -0.0024396104 0.19499977 1.447291e-38
-0.077511355 -0.0024396109 0.19499977 1.4012294e-38
-0.07260678 -0.0024945505 0.19507904 1.3920097e-38
-0.067439236 -0.0025453062 0.19598716 1.364387e-38
-0.062512577 -0.0024521188 0.19599946 1.3275806e-38
-0.057447031 -0.0025675555 0.19599946 1.2907384e-38
-0.052366972 -0.0025742769 0.1961637 1.2170538e-38
-0.047547106 -0.0024901133 0.19699965 1.1894673e-38
-0.042463999 -0.0025036251 0.19699961 1.171028e-38
-0.037259135 -0.0024225966 0.1978817 1.1710997e-38
-0.03242575 -0.0025099518 0.19800059 1.1342935e-38
-0.02745959 -0.002477142 0.19800059 1.12511e-38
-0.022709517 -0.0025671374 0.19818167 1.1251098e-38
-0.017742807 -0.0020817518 0.19900003 1.1158903e-38
-0.012205387 -0.0021164673 0.19900003 1.125146e-38
-0.0090718353 -0.0026657912 0.19900011 1.106743e-38
-0.087123416 0.002652633 0.19499978 1.4564386e-38
-0.082519822 0.0025680014 0.19499978 1.447291e-38
-0.077504039 0.0025658763 0.19502507 1.4196684e-38
-0.072731294 0.0029552118 0.19589522 1.4381076e-38
-0.067527287 0.0027887912 0.19590247 1.4104848e-38
-0.062555835 0.002595745 0.19636415 1.382862e-38
-0.057782426 0.0028696498 0.1968579 1.2999581e-38
-0.052361082 0.0025602253 0.1963457 1.2078341e-38
-0.047519613 0.0025585273 0.19699974 1.1802114e-38
-0.042694807 0.0026277595 0.19731478 1.1710277e-38
-0.037525311 0.0026894873 0.19800045 1.16188e-38
-0.032534901 0.0026089712 0.19800059 1.1250381e-38
-0.027478678 0.0026178006 0.19800049 1.106635e-38
-0.021977158 0.0025607697 0.19889197 1.0974516e-38
-0.01752058 0.0025210364 0.19900016 1.1066348e-38
-0.012360123 0.0024908935 0.19900009 1.1066347e-38
-0.0094707385 0.0012754936 0.19900005 1.0974511e-38
-0.095126718 0.0088307625 0.19500002 1.456403e-38
-0.092534602 0.0083512813 0.19499981 1.4380355e-38
-0.087376907 0.0075198659 0.19499978 1.4565107e-38
-0.082596235 0.0073977546 0.19507453 1.4565106e-38
-0.077271432 0.0072322739 0.1950046 1.4473271e-38
-0.072414003 0.0073820697 0.19573158 1.4473988e-38
-0.0675366 0.007454948 0.19599946 1.4197041e-38
-0.062526569 0.0074778651 0.19641475 1.3921174e-38
-0.057600144 0.0076003596 0.19699971 1.2999578e-38
-0.052262392 0.007656029 0.19690435 1.2078342e-38
-0.047557499 0.0074577541 0.19700427 1.1802115e-38
-0.042479873 0.0074936552 0.19762459 1.1618084e-38
-0.037610203 0.0075310236 0.19800051 1.1618083e-38
-0.032534897 0.0075310231 0.19800059 1.1250381e-38
-0.027468065 0.0072446596 0.19816768 1.0882317e-38
-0.022246426 0.0077253138 0.19888134 1.0790483e-38
-0.01739639 0.0075690565 0.19900022 1.0881958e-38
-0.012828928 0.0076124556 0.19900003 1.0881957e-38
-0.097181536 0.013152623 0.19499981 1.4564027e-38
-0.092506602 0.012425968 0.19499977 1.4564027e-38
-0.087508149 0.012425965 0.19499977 1.4748418e-38
-0.082421705 0.012467587 0.19533843 1.4748777e-38
-0.077444814 0.012778529 0.19596142 1.4565106e-38
-0.072533369 0.012519184 0.19599947 1.4197403e-38
-0.067546144 0.012480137 0.19599944 1.4197403e-38
-0.06251803 0.012306783 0.19640163 1.3644586e-38
-0.05745608 0.012390176 0.19699964 1.3091774e-38
-0.052509867 0.012354229 0.1971399 1.2170538e-38
-0.047418594 0.012602925 0.19776835 1.1710281e-38
-0.042510055 0.012447181 0.19800049 1.1433694e-38
-0.037636749 0.012422038 0.19800049 1.1341499e-38
-0.032673884 0.012432661 0.19800051 1.1250021e-38
-0.027349012 0.012504552 0.19900011 1.0881237e-38
-0.02249733 0.012515963 0.1990003 1.0881597e-38
-0.01753879 0.012362149 0.19900014 1.0881597e-38
-0.012742681 0.011852155 0.19899979 1.0881597e-38
-0.097289987 0.017382683 0.19499978 1.4471831e-38
-0.092579119 0.01722334 0.19499978 1.4471831e-38
-0.087561987 0.017552856 0.19563067 1.4840614e-38
-0.081894144 0.017695099 0.19572265 1.5025725e-38
-0.077422664 0.017524445 0.19599949 1.4842057e-38
-0.07256069 0.01752444 0.19599949 1.4473271e-38
-0.067645483 0.017566497 0.19616328 1.4197042e-38
-0.062417723 0.01773762 0.19699979 1.3552032e-38
-0.057710819 0.017454034 0.19702165 1.2999577e-38
-0.052280061 0.017477399 0.1977908 1.2169819e-38
-0.047433399 0.017375112 0.19800051 1.1525529e-38
-0.042521812 0.017375125 0.19800051 1.1341497e-38
-0.037801426 0.017511969 0.19815332 1.1433696e-38
-0.032116525 0.017258065 0.19839834 1.1157825e-38
-0.027598282 0.017462876 0.19900022 1.0881238e-38
-0.02258924 0.01728759 0.19900021 1.0697206e-38
-0.017602289 0.017643837 0.19900006 1.0605011e-38
-0.013105687 0.018765343 0.19900016 1.0513535e-38
-0.097361743 0.022408733 0.19499977 1.4195246e-38
-0.092321627 0.022454061 0.19553696 1.4379276e-38
-0.087470725 0.02255916 0.19599946 1.474842e-38
-0.082446687 0.022559164 0.19599944 1.5025728e-38
-0.077456065 0.022607267 0.19599947 1.5118643e-38
-0.072677739 0.022294177 0.19606172 1.4750578e-38
-0.067496926 0.02244593 0.19654243 1.4012651e-38
-0.062505729 0.022511041 0.19699971 1.3367639e-38
-0.057456072 0.022511028 0.19699964 1.2722991e-38
-0.052296683 0.022446332 0.19762133 1.1985786e-38
-0.047433387 0.022461226 0.19800059 1.134078e-38
-0.042521797 0.022461222 0.19800059 1.1249302e-38
-0.037745241 0.022212138 0.19808249 1.134114e-38
-0.032424942 0.022469752 0.19892874 1.1249663e-38
-0.028266076 0.02182723 0.19899985 1.0881241e-38
-0.022611253 0.022232197 0.19900003 1.0512814e-38
-0.016896345 0.021339016 0.19900016 1.0420623e-38
-0.014007956 0.020650877 0.19900002 1.0329145e-38
-0.097432181 0.027327375 0.1950331 1.3919016e-38
-0.092338189 0.027617944 0.19549428 1.4103409e-38
-0.08747074 0.027593885 0.19599949 1.4564026e-38
-0.082446702 0.027593907 0.19599946 1.4932811e-38
-0.077496402 0.027527928 0.19600873 1.4841336e-38
-0.072497018 0.027522108 0.19697131 1.4197042e-38
-0.067555428 0.027408252 0.19699964 1.3735704e-38
-0.062624887 0.027397461 0.19703282 1.336764e-38
-0.057507608 0.027659817 0.19770475 1.2353487e-38
-0.0523265 0.027649665 0.19777749 1.1893232e-38
-0.047433384 0.027547354 0.19800051 1.1340417e-38
-0.042521797 0.027547348 0.19800051 1.1248224e-38
-0.037437383 0.027523279 0.19862993 1.115675e-38
-0.03253467 0.027521607 0.1990003 1.1064912e-38
-0.027613688 0.027553165 0.19900027 1.069685e-38
-0.022875298 0.027296299 0.19900011 1.0235869e-38
-0.019502589 0.025575802 0.19900002 1.0236227e-38
-0.097337 0.032636795 0.19581909 1.3734266e-38
-0.092494726 0.032466237 0.19599946 1.4194884e-38
-0.087470695 0.032466237 0.19599949 1.4379995e-38
-0.082446672 0.032466233 0.19599946 1.4656223e-38
-0.077443443 0.032508731 0.19645451 1.4472552e-38
-0.072605111 0.032468636 0.19699964 1.3920097e-38
-0.067741379 0.032202866 0.19699971 1.3735345e-38
-0.062494569 0.032166429 0.19701408 1.336728e-38
-0.057498358 0.032364294 0.19779812 1.2538599e-38
-0.052498393 0.032459777 0.19800058 1.1801035e-38
-0.047433387 0.032469399 0.19800051 1.1156387e-38
-0.042584889 0.032401692 0.19800046 1.1063474e-38
-0.03740143 0.032490294 0.19862962 1.0971999e-38
-0.032534666 0.032633416 0.19900022 1.0787966e-38
-0.028556522 0.031576112 0.19900014 1.0788326e-38
-0.024337264 0.030849498 0.19900006 1.023587e-38
-0.097246803 0.037574019 0.19595686 1.3642069e-38
-0.09250053 0.037506778 0.19599944 1.3918298e-38
-0.087508105 0.037438508 0.19599947 1.4103046e-38
-0.082539909 0.03722965 0.19601269 1.4195243e-38
-0.077411026 0.037524488 0.19689324 1.4195603e-38
-0.072605118 0.037529103 0.19699971 1.3919735e-38
-0.067592956 0.037549805 0.19722071 1.3550953e-38
-0.062402163 0.037660111 0.19785126 1.3182888e-38
-0.057754464 0.037568323 0.19823617 1.2814465e-38
-0.052028328 0.0374665 0.19814862 1.2077623e-38
-0.047466751 0.037168182 0.19816597 1.1340418e-38
-0.042374268 0.037723407 0.1988042 1.0879443e-38
-0.037471071 0.037580281 0.19900022 1.0696129e-38
-0.032576364 0.037607137 0.19900021 1.0603576e-38
-0.029630911 0.039074071 0.19900005 1.0694693e-38
-0.097292684 0.042601284 0.19599453 1.3642431e-38
-0.092494749 0.042535707 0.19599946 1.3734625e-38
-0.087612957 0.042729069 0.19608906 1.4010852e-38
-0.082273416 0.04263664 0.19696465 1.4195243e-38
-0.077491872 0.042426255 0.19699971 1.410305e-38
-0.072605096 0.042426281 0.19699971 1.3919378e-38
-0.067603976 0.04257312 0.19748247 1.3366922e-38
-0.062367436 0.042661149 0.19783999 1.3182888e-38
-0.057584032 0.042477597 0.19800059 1.2814105e-38
-0.052508678 0.042477548 0.19800067 1.253788e-38
-0.04716906 0.042538255 0.19900015 1.1432255e-38
-0.042333148 0.042501371 0.19900018 1.0879443e-38
-0.037763599 0.042234048 0.19900002 1.0787247e-38
-0.032804694 0.040945861 0.19900016 1.0603216e-38
-0.02966686 0.040501326 0.19900002 1.0695052e-38
-0.019370953 0.043846373 0.19900002 9.8660114e-39
-0.097356759 0.047408063 0.1959995 1.3366206e-38
-0.092494756 0.047408063 0.19599946 1.3366203e-38
-0.08749076 0.047554802 0.19660753 1.3734985e-38
-0.082528576 0.047752708 0.19699977 1.3918656e-38
-0.077491894 0.047486719 0.19699964 1.3919016e-38
-0.07276094 0.047258671 0.19710436 1.3643151e-38
-0.067400686 0.047536884 0.19792385 1.3366203e-38
-0.062495574 0.047563724 0.19800051 1.2722271e-38
-0.057584018 0.047563706 0.19800051 1.2260931e-38
-0.052508693 0.04756368 0.19800059 1.2169096e-38
-0.047331367 0.047479879 0.19870256 1.1616645e-38
-0.042407487 0.047474142 0.19900022 1.0970918e-38
-0.038426626 0.047426429 0.19900014 1.0695053e-38
-0.03430355 0.049026877 0.19900005 1.0787247e-38
-0.097356789 0.052442867 0.19599949 1.3274011e-38
-0.092681944 0.05252815 0.19618401 1.34584e-38
-0.087567396 0.052411783 0.19699982 1.364279e-38
-0.082541592 0.052547172 0.19699964 1.3826822e-38
-0.077663325 0.052507371 0.19726031 1.3642791e-38
-0.072333582 0.052608877 0.19797347 1.3366564e-38
-0.067407198 0.052485742 0.19800051 1.3089617e-38
-0.062495582 0.052485775 0.19800051 1.2445324e-38
-0.057584025 0.052485738 0.19800051 1.2444962e-38
-0.052744847 0.052252393 0.19806929 1.2353128e-38
-0.047209851 0.052553836 0.1988688 1.1800676e-38
-0.042470876 0.052352965 0.19900019 1.0971276e-38
-0.038872063 0.051422212 0.19899999 1.0787245e-38
-0.034575049 0.05024438 0.19900002 1.0695772e-38
-0.097356752 0.057477564 0.1959995 1.308962e-38
-0.092513077 0.057382561 0.19649972 1.3366204e-38
-0.087594174 0.057485629 0.19699973 1.3550594e-38
-0.082661688 0.057402361 0.19705704 1.3551313e-38
-0.07742209 0.057562031 0.19797124 1.3459117e-38
-0.072482459 0.057407774 0.19800059 1.3366203e-38
-0.067407191 0.057407778 0.19800051 1.2905583e-38
-0.062495574 0.057407774 0.19800051 1.2260933e-38
-0.057819288 0.057560015 0.19860137 1.2169457e-38
-0.052375555 0.05755249 0.19872831 1.2169099e-38
-0.047740836 0.056903783 0.19900002 1.1892873e-38
-0.0433244 0.057174087 0.19899987 1.106383e-38
-0.09730757 0.062008739 0.19602203 1.3273292e-38
-0.09248022 0.062515475 0.19696167 1.327365e-38
-0.087413527 0.062479991 0.19699986 1.3089617e-38
-0.082637437 0.062528536 0.19736177 1.3550594e-38
-0.077557839 0.062493932 0.19800059 1.3366564e-38
-0.072482482 0.062493917 0.19800067 1.3274367e-38
-0.067407198 0.062493917 0.19800059 1.2813749e-38
-0.062576033 0.062562495 0.19841813 1.235313e-38
-0.057678908 0.062827468 0.19897999 1.2076903e-38
-0.052425079 0.062686116 0.19892804 1.2076903e-38
-0.048081387 0.063311279 0.19899984 1.2076547e-38
-0.043969031 0.063414142 0.19900006 1.1247863e-38
-0.097154655 0.067677788 0.19699985 1.308926e-38
-0.092537545 0.067587554 0.19699974 1.3181454e-38
-0.087412372 0.06723927 0.1970225 1.3182172e-38
-0.082398169 0.06755916 0.19777809 1.3642791e-38
-0.077557847 0.06757997 0.19800051 1.3550954e-38
-0.072482474 0.067579985 0.19800059 1.3274727e-38
-0.06746728 0.067510761 0.19800046 1.2813749e-38
-0.062333092 0.067422621 0.19861387 1.2537162e-38
-0.057545751 0.067591548 0.19900022 1.235313e-38
-0.052609324 0.067591526 0.19900022 1.1985068e-38
-0.048488759 0.067123182 0.19899991 1.1984351e-38
-0.044184562 0.065480858 0.19900002 1.1432252e-38
-0.097237848 0.072454721 0.19699977 1.3181814e-38
-0.092632569 0.072734207 0.19736098 1.2998145e-38
-0.086983286 0.072676495 0.1977163 1.3458401e-38
-0.082469329 0.072502121 0.19800051 1.3643513e-38
-0.077557839 0.072502032 0.19800051 1.3642791e-38
-0.072482452 0.072502017 0.19800059 1.3366922e-38
-0.067510165 0.072676681 0.19848397 1.2906304e-38
-0.062402923 0.072608612 0.19900018 1.2629358e-38
-0.057545748 0.072538443 0.19900022 1.2352772e-38
-0.052701164 0.072446406 0.19900018 1.1984707e-38
-0.049271394 0.071434647 0.19900005 1.1892872e-38
-0.091222659 0.07511203 0.1977143 1.3090338e-38
-0.085580058 0.075127155 0.19800001 1.3274011e-38
-0.082469389 0.07512714 0.19799998 1.3459123e-38
-0.077557795 0.07512714 0.19799998 1.3458761e-38
-0.072482489 0.07512714 0.19799998 1.3458403e-38
-0.066870719 0.075259179 0.1987059 1.2998142e-38
-0.062482134 0.075341694 0.19900002 1.2814108e-38
-0.05754574 0.075341702 0.19900002 1.2537522e-38
-0.053267527 0.075176783 0.19900002 1.235277e-38
0.044233527 -0.080989778 0.20000002 1.3275811e-38
0.047982715 -0.080997229 0.19999988 1.3183615e-38
0.052138384 -0.08089035 0.19999988 1.3275808e-38
0.06312611 -0.080724217 0.20046668 1.3368369e-38
0.06754943 -0.081118926 0.20100015 1.3184337e-38
0.072509281 -0.081128255 0.20100015 1.3368368e-38
0.077495307 -0.081128225 0.20100015 1.3368009e-38
0.082531787 -0.081084006 0.2013507 1.3368009e-38
0.087924205 -0.080978751 0.2019559 1.3368012e-38
0.092378184 -0.08129634 0.2019998 1.336801e-38
0.097025886 -0.081151359 0.20253128 1.3276174e-38
0.048650626 -0.077411346 0.20000021 1.3091775e-38
0.052548748 -0.077494442 0.20000042 1.299994e-38
0.057179093 -0.076352045 0.20000006 1.2907747e-38
0.064166218 -0.077706918 0.20089296 1.3183616e-38
0.067523263 -0.077630572 0.20100018 1.309214e-38
0.07247936 -0.07766065 0.20100018 1.3092141e-38
0.077412657 -0.07758522 0.20133688 1.3092141e-38
0.082639277 -0.077266373 0.2019951 1.3092142e-38
0.087568402 -0.077347286 0.20199974 1.3092503e-38
0.092095546 -0.077900305 0.20233925 1.3184338e-38
0.097164586 -0.077512696 0.20299953 1.2999587e-38
0.039089631 -0.070773184 0.20000002 1.2632238e-38
0.042677026 -0.07165242 0.20000021 1.2907743e-38
0.047594555 -0.07252799 0.20000045 1.2816266e-38
0.052634504 -0.072604083 0.20000044 1.2723713e-38
0.057473075 -0.072752252 0.20005949 1.2815191e-38
0.06307739 -0.072139435 0.20094685 1.2815551e-38
0.067482665 -0.072671667 0.20100018 1.2723717e-38
0.072920732 -0.072604306 0.20178467 1.2907387e-38
0.077546798 -0.072493114 0.20199974 1.2907387e-38
0.082559213 -0.072510831 0.20199974 1.2815553e-38
0.087202422 -0.072756499 0.20206767 1.2815555e-38
0.092242911 -0.072434895 0.20241445 1.2907391e-38
0.097515166 -0.07227239 0.20299965 1.2998861e-38
0.039228681 -0.06763231 0.19999991 1.2631877e-38
0.04238135 -0.06763228 0.20000044 1.2539682e-38
0.047507942 -0.067632265 0.20000046 1.2631516e-38
0.052430712 -0.067814767 0.20000039 1.253968e-38
0.057726629 -0.067484953 0.20074737 1.2631157e-38
0.062558345 -0.067646399 0.20100018 1.2447489e-38
0.067502409 -0.067617901 0.20100018 1.263116e-38
0.072947159 -0.067511812 0.20172778 1.2538966e-38
0.077546783 -0.067639209 0.20199974 1.2630801e-38
0.082557626 -0.067639239 0.20199974 1.2538967e-38
0.087653607 -0.067643486 0.202622 1.2539327e-38
0.09236601 -0.067637511 0.20299946 1.2446772e-38
0.097066097 -0.067637548 0.2029995 1.2538607e-38
0.034443434 -0.061072335 0.19999999 1.2540404e-38
0.03743403 -0.062473964 0.20000046 1.2540043e-38
0.042368848 -0.062485028 0.20000046 1.2447845e-38
0.047507942 -0.062494811 0.20000048 1.2447483e-38
0.051867492 -0.062537715 0.20003781 1.2355649e-38
0.057582717 -0.062643699 0.20100018 1.2447126e-38
0.062517539 -0.062634654 0.20100018 1.253932e-38
0.067532264 -0.062666208 0.20100018 1.2630798e-38
0.073209718 -0.062584244 0.20195548 1.2355293e-38
0.07754682 -0.062617481 0.20199974 1.2263818e-38
0.082557611 -0.062617444 0.20199974 1.2263099e-38
0.08777561 -0.062468499 0.20265324 1.2262379e-38
0.092366017 -0.06259121 0.20299946 1.226274e-38
0.097066097 -0.062591188 0.2029995 1.2263101e-38
0.029702723 -0.055147644 0.2 1.2725509e-38
0.033156119 -0.056804091 0.20000024 1.2632239e-38
0.037420124 -0.057357326 0.20000044 1.2448208e-38
0.042381357 -0.057357382 0.20000044 1.2263458e-38
0.047327291 -0.057859067 0.20005034 1.2171621e-38
0.052652791 -0.057195295 0.20081617 1.2079067e-38
0.057572138 -0.057624694 0.20100018 1.2262739e-38
0.062479232 -0.057804674 0.20127782 1.2262738e-38
0.067371294 -0.05747183 0.20161368 1.2170902e-38
0.072643675 -0.057502277 0.20199974 1.2079068e-38
0.077470675 -0.057698917 0.20199974 1.2078349e-38
0.082748644 -0.057528358 0.20260724 1.1893957e-38
0.087569401 -0.057446063 0.20299949 1.1985791e-38
0.092223801 -0.057673004 0.20299947 1.2169823e-38
0.097233281 -0.057523336 0.20354107 1.2170546e-38
0.027868586 -0.052546248 0.19999988 1.2632958e-38
0.033063479 -0.05284211 0.20000029 1.2448568e-38
0.037420128 -0.052385569 0.20000044 1.2356012e-38
0.042158052 -0.052602682 0.2000632 1.198795e-38
0.047756996 -0.052441709 0.20095472 1.1894677e-38
0.052565269 -0.052647449 0.20100018 1.1986511e-38
0.057430625 -0.05277995 0.20100969 1.2078708e-38
0.062886432 -0.052453879 0.20189124 1.2078707e-38
0.067525163 -0.05257462 0.20199974 1.2170183e-38
0.072535969 -0.052574683 0.20199974 1.1985792e-38
0.077568442 -0.052529886 0.20249969 1.1801401e-38
0.0826305 -0.052498441 0.20299946 1.1893596e-38
0.087477416 -0.052519538 0.20299949 1.1801401e-38
0.092016958 -0.052588008 0.20317157 1.1709564e-38
0.09745945 -0.052371621 0.20400019 1.1893958e-38
0.023034751 -0.048202556 0.19999987 1.2725155e-38
0.027371988 -0.047097892 0.20000039 1.2632959e-38
0.03274167 -0.047075175 0.20000038 1.2540045e-38
0.037420124 -0.047413833 0.20000044 1.2264177e-38
0.042477082 -0.047432847 0.20047264 1.198759e-38
0.047579262 -0.047650915 0.20100018 1.180248e-38
0.052565269 -0.047650859 0.20100018 1.1802481e-38
0.056891631 -0.047648244 0.20109949 1.1895036e-38
0.06251432 -0.047553129 0.20199974 1.1894317e-38
0.067525171 -0.047553085 0.20199974 1.2078346e-38
0.072535969 -0.047553129 0.20199974 1.180212e-38
0.078043312 -0.047506623 0.20279452 1.1802118e-38
0.082630478 -0.047452107 0.20299946 1.1801761e-38
0.087232649 -0.047363035 0.20299953 1.1432977e-38
0.093002506 -0.047640119 0.20398176 1.1709925e-38
0.09723258 -0.047524292 0.20400009 1.1709927e-38
0.023358861 -0.041575387 0.20000009 1.2725155e-38
0.027497737 -0.042442057 0.20000044 1.2541124e-38
0.032458939 -0.042442027 0.20000044 1.2356733e-38
0.03740979 -0.042452384 0.20000044 1.2264177e-38
0.042824283 -0.042574696 0.20072637 1.198759e-38
0.047579251 -0.04265425 0.20100018 1.1526612e-38
0.052500635 -0.042567834 0.20100018 1.1802838e-38
0.057694562 -0.042510282 0.20159116 1.18032e-38
0.062514327 -0.042531695 0.20199974 1.180248e-38
0.067525171 -0.042531703 0.20199974 1.180212e-38
0.072466567 -0.042731844 0.20220418 1.1710283e-38
0.077821679 -0.042144805 0.20291801 1.1525891e-38
0.082670003 -0.042402763 0.20299946 1.1525891e-38
0.087498389 -0.042405836 0.20299947 1.1341139e-38
0.092305213 -0.042078093 0.20322198 1.1432971e-38
0.097529694 -0.042825449 0.20400028 1.1893957e-38
0.023978967 -0.038123921 0.19999987 1.2633319e-38
0.027497737 -0.037470244 0.20000044 1.2633318e-38
0.032449957 -0.037491273 0.20000044 1.2356733e-38
0.037132822 -0.037560098 0.20018317 1.2264178e-38
0.042633858 -0.037619937 0.20100018 1.2079787e-38
0.047579262 -0.037657604 0.20100018 1.1619167e-38
0.052561715 -0.037735064 0.20139883 1.1619167e-38
0.057610024 -0.037253939 0.20194307 1.1526253e-38
0.062514327 -0.037510168 0.20199974 1.1433699e-38
0.067320928 -0.037730731 0.20203036 1.1434056e-38
0.072701484 -0.037043337 0.20279966 1.1434055e-38
0.077594876 -0.037359454 0.20299946 1.1617727e-38
0.08258944 -0.037397496 0.20299946 1.1710283e-38
0.087809585 -0.037665777 0.20342943 1.161809e-38
0.092385285 -0.03715105 0.20375004 1.1710284e-38
0.096762083 -0.037793908 0.20400034 1.1986154e-38
0.018524436 -0.030761978 0.19999991 1.2081583e-38
0.02281451 -0.032179371 0.20000038 1.2357451e-38
0.027320523 -0.032681085 0.20005596 1.2449287e-38
0.032500051 -0.032568034 0.20049489 1.2264896e-38
0.037757684 -0.032467242 0.20098048 1.217234e-38
0.042593252 -0.032660969 0.20100018 1.1803559e-38
0.047540776 -0.032810062 0.20138846 1.1526612e-38
0.052278943 -0.032481462 0.20143999 1.1434776e-38
0.057503555 -0.032488741 0.20199974 1.1618806e-38
0.0621957 -0.032548793 0.20199974 1.1618444e-38
0.067945853 -0.032389924 0.20296906 1.1618446e-38
0.072559357 -0.032481324 0.20299947 1.1710641e-38
0.077594876 -0.032481335 0.20299947 1.1894675e-38
0.082062244 -0.032516658 0.20320588 1.2078707e-38
0.087639481 -0.032320697 0.20399994 1.2170902e-38
0.092483863 -0.032472234 0.2039998 1.2354576e-38
0.09654966 -0.032537423 0.20400034 1.2538969e-38
0.018154152 -0.028081456 0.20000026 1.2080865e-38
0.02253654 -0.027526692 0.20000044 1.1988667e-38
0.027510453 -0.027574992 0.20045429 1.1989025e-38
0.032621235 -0.027664326 0.20100018 1.1989025e-38
0.037607256 -0.027664371 0.20100018 1.2080504e-38
0.042593244 -0.027664363 0.20100018 1.1896113e-38
0.04734515 -0.027889358 0.20112862 1.1711362e-38
0.05257529 -0.02726878 0.20185919 1.1711363e-38
0.057503555 -0.027467204 0.20199974 1.1895393e-38
0.062467258 -0.027517442 0.20199974 1.1895393e-38
0.067954585 -0.027709035 0.202696 1.2171621e-38
0.072494976 -0.027644671 0.20299946 1.2355654e-38
0.077741392 -0.027822759 0.20333697 1.2540042e-38
0.082660727 -0.027110232 0.20391488 1.2724076e-38
0.087423429 -0.027401075 0.2039998 1.244749e-38
0.092436366 -0.027383618 0.20399988 1.2356015e-38
0.096057005 -0.028129624 0.20400022 1.272336e-38
0.0094792349 -0.023635766 0.2 1.1989023e-38
0.012271576 -0.021217313 0.1999999 1.1896468e-38
0.018608918 -0.021590192 0.1999999 1.1896829e-38
0.022515777 -0.022574276 0.20000044 1.1804636e-38
0.027974859 -0.022476366 0.2008353 1.2080859e-38
0.032621231 -0.022501191 0.20100018 1.1897192e-38
0.037482355 -0.022766272 0.20100485 1.1988669e-38
0.04258794 -0.02262859 0.20146286 1.1896113e-38
0.047533281 -0.022156764 0.2018863 1.1895756e-38
0.052492723 -0.022445705 0.20199974 1.1711723e-38
0.057215527 -0.022744145 0.20187263 1.1896115e-38
0.062359426 -0.022676678 0.20231323 1.2080146e-38
0.067561843 -0.022515751 0.20299946 1.2448927e-38
0.072167546 -0.022806985 0.20306894 1.2909185e-38
0.077712059 -0.022327904 0.20400017 1.2909186e-38
0.08236298 -0.022498891 0.20399989 1.2908467e-38
0.087423436 -0.022498889 0.20399989 1.3000303e-38
0.09239535 -0.022433618 0.20399995 1.290775e-38
0.095688708 -0.021231132 0.20400001 1.3092142e-38
0.0034529089 -0.016384516 0.19999987 1.1065262e-38
0.0070418455 -0.016377334 0.20000008 1.1620238e-38
0.01267758 -0.017542316 0.20000044 1.1804631e-38
0.017575352 -0.017583191 0.20000044 1.1804632e-38
0.022176357 -0.017631194 0.20004849 1.1804634e-38
0.027776731 -0.017182548 0.20100017 1.1804634e-38
0.032621235 -0.017338011 0.20100018 1.1988307e-38
0.037593182 -0.017516296 0.20156243 1.1896833e-38
0.042471085 -0.017424256 0.20199974 1.198831e-38
0.047481913 -0.017424243 0.20199974 1.1896113e-38
0.052492719 -0.017424256 0.20199974 1.1803917e-38
0.057121426 -0.017518207 0.20207578 1.1896475e-38
0.063025653 -0.017508864 0.20290479 1.2171983e-38
0.067523845 -0.017510505 0.20299946 1.2632239e-38
0.072573565 -0.017553633 0.20349999 1.2724793e-38
0.077471226 -0.01759674 0.20399989 1.281699e-38
0.08234331 -0.017617969 0.20399982 1.300066e-38
0.087437101 -0.017628716 0.20399982 1.3092498e-38
0.091590799 -0.01869454 0.20400025 1.3000305e-38
0.095452562 -0.0198281 0.20400003 1.3091782e-38
-0.0015618186 -0.011728837 0.19999991 1.1067786e-38
0.0024106074 -0.012564727 0.20000044 1.1251456e-38
0.0074875676 -0.012611412 0.20000046 1.1436568e-38
0.012614151 -0.012611432 0.20000044 1.1528764e-38
0.017495357 -0.012711635 0.20000042 1.1528763e-38
0.022758331 -0.01246126 0.20062734 1.1528764e-38
0.027635247 -0.012341371 0.20100018 1.1620602e-38
0.032528039 -0.01244879 0.20100018 1.1620245e-38
0.037267357 -0.012443537 0.20130719 1.1804996e-38
0.042471085 -0.012402782 0.20199974 1.1804996e-38
0.047315694 -0.012554782 0.20199974 1.1804996e-38
0.052336827 -0.012968304 0.20212238 1.1804636e-38
0.057780527 -0.01230027 0.20275784 1.1988669e-38
0.062402658 -0.012459497 0.20299947 1.2172341e-38
0.067939617 -0.012762044 0.20361419 1.2356733e-38
0.073090643 -0.012700352 0.20379129 1.2725155e-38
0.077237606 -0.01267381 0.20400006 1.2909186e-38
0.080982797 -0.014554053 0.20400001 1.3001017e-38
0.08773572 -0.01399684 0.20400013 1.3368726e-38
-0.0058604269 -0.0054141982 0.20000002 1.1067431e-38
-0.0010815699 -0.0072475169 0.19999988 1.1251817e-38
0.0023609945 -0.0076396586 0.20000044 1.1252177e-38
0.0074875681 -0.0076396582 0.20000046 1.125182e-38
0.012317838 -0.0077914624 0.20002627 1.1344014e-38
0.017800901 -0.0070011327 0.20099504 1.1344373e-38
0.022649217 -0.0073447442 0.20100018 1.1436208e-38
0.027614376 -0.0073641599 0.20100018 1.143657e-38
0.032337364 -0.0073464955 0.20141537 1.1436211e-38
0.03746029 -0.0073812846 0.20199974 1.1620605e-38
0.042471088 -0.0073812855 0.20199974 1.1713161e-38
0.047265287 -0.0073205391 0.20250396 1.1804636e-38
0.052437905 -0.0074163172 0.20299946 1.1803915e-38
0.05745241 -0.0074178292 0.20299946 1.2080865e-38
0.062307455 -0.0076877726 0.20300457 1.2356372e-38
0.067536063 -0.0076602548 0.20302458 1.2448927e-38
0.072651088 -0.0074267928 0.20355555 1.2632959e-38
0.077363588 -0.0073524425 0.20399997 1.2909185e-38
0.082285583 -0.0061547724 0.20400029 1.318577e-38
0.085525669 -0.00591892 0.20400001 1.2725156e-38
-0.0062443791 -0.0023364371 0.20000011 1.0975234e-38
-0.0026002082 -0.0025021622 0.20000046 1.097559e-38
0.0023609959 -0.002502166 0.20000046 1.1159623e-38
0.0074875648 -0.0025021622 0.20000048 1.1067786e-38
0.012001077 -0.0024803767 0.20011544 1.0605003e-38
0.017497016 -0.0023481217 0.20100018 1.0605002e-38
0.022650698 -0.0023570429 0.20100018 1.1343653e-38
0.027542911 -0.0023249863 0.20100018 1.1344013e-38
0.0330716 -0.0023878128 0.20196341 1.1251819e-38
0.037460294 -0.0023598017 0.20199974 1.1436213e-38
0.042143956 -0.002521113 0.20199974 1.1620961e-38
0.048403013 -0.0025294565 0.20299976 1.1620244e-38
0.052416831 -0.0023714839 0.20299946 1.1803917e-38
0.057452414 -0.0023714828 0.20299946 1.1988309e-38
0.062683493 -0.0023291023 0.20363092 1.1988309e-38
0.067495927 -0.0023183296 0.20399983 1.2356731e-38
0.072579481 -0.0023831667 0.2039998 1.2725154e-38
0.077471226 -0.0023831637 0.20399989 1.318577e-38
0.082131386 -0.0027797245 0.20400007 1.3185774e-38
0.085669048 -0.0036485523 0.20400001 1.281699e-38
-0.0069325753 0.0029074466 0.20000032 1.079084e-38
-0.0026002079 0.0026353274 0.20000044 1.0791199e-38
0.0023609954 0.0026353314 0.20000044 1.0883036e-38
0.007112301 0.0023536601 0.20007564 1.0606446e-38
0.012555054 0.0029356703 0.20095257 8.9443914e-39
0.01749702 0.0026485075 0.20100018 9.6812334e-39
0.022476565 0.0024884208 0.20100018 1.1158177e-38
0.027564636 0.0026619101 0.20163369 1.1251458e-38
0.032511696 0.0025517337 0.20199974 1.12511e-38
0.037460286 0.0024943002 0.20199974 1.1436211e-38
0.041921321 0.0023527702 0.20201874 1.16206e-38
0.047273684 0.0021252816 0.20299968 1.1620244e-38
0.052225001 0.0022866777 0.20299953 1.1804278e-38
0.057483599 0.0023959342 0.20341708 1.1896115e-38
0.062762417 0.0027723047 0.2039347 1.217234e-38
0.067519039 0.0025189957 0.20399989 1.2632959e-38
0.072425805 0.0023340241 0.20400003 1.2817709e-38
0.076888137 0.0014827064 0.20400026 1.3093575e-38
-0.0074583353 0.0075608469 0.20000042 1.0881956e-38
-0.0026002084 0.0076070921 0.20000044 1.0790121e-38
0.0023609945 0.0076070935 0.20000044 1.079048e-38
0.0074478337 0.0075625004 0.20053393 1.0421695e-38
0.012377363 0.0073574656 0.20073439 9.9592692e-39
0.01725602 0.0074348035 0.20100489 1.0235856e-38
0.022486649 0.0075859609 0.20155314 1.0789393e-38
0.027438652 0.0073484033 0.20199974 1.1159261e-38
0.032439031 0.0073379357 0.20199974 1.0974871e-38
0.037118774 0.0069025364 0.20201147 1.1159982e-38
0.042663775 0.0076564196 0.20285055 1.143657e-38
0.047354005 0.0074274009 0.20299946 1.1528405e-38
0.051971287 0.0075689838 0.20304582 1.1804275e-38
0.05703434 0.0070823454 0.20360422 1.1804278e-38
0.06247979 0.007416599 0.20399982 1.1896112e-38
0.067519039 0.0074211406 0.2039998 1.2725512e-38
0.071895942 0.0071212882 0.20400031 1.2817709e-38
-0.010994877 0.014520217 0.20000002 1.0697564e-38
-0.00739524 0.012666097 0.20000042 1.0789761e-38
-0.0026002079 0.012578866 0.20000044 1.0789761e-38
0.0023609945 0.012578856 0.20000044 1.0881957e-38
0.0072535514 0.01236107 0.20007466 1.079012e-38
0.012305366 0.012654359 0.20047125 1.0605726e-38
0.017026426 0.012741446 0.20108616 1.0697563e-38
0.022521073 0.012276452 0.20199974 1.1066347e-38
0.027438655 0.012369901 0.20199974 1.0975232e-38
